340.07 337.31 332.57 326.12 318.73 311.77 305.95 301.60 299.42 302.24 311.35 322.14 328.25 333.86 342.71 354.70 364.26 367.21 368.96 370.40 372.75 376.52 378.58 380.14 380.45 379.68 379.09 377.94 377.28 377.22 377.59 378.17 379.31 379.35 379.08 379.48 380.06 380.14 381.18 382.55 384.44 385.82 384.84 380.66 376.07 373.60 368.46 364.38 362.00 362.71 365.24 368.84 375.95 382.05 390.85 398.49 400.75 403.29 404.06 402.35 396.62 391.42 392.48 396.74 400.56 402.01 400.72 397.45 391.81 382.33 380.19 378.36 382.68 388.55 388.47 388.60 387.27 381.39 374.65 369.30 361.02 353.16 348.19 341.68 336.95 330.42 322.82 319.20 315.69 315.00 316.75 319.30 320.39 319.66 318.62 314.99 309.98 303.55 299.85 300.04 299.47 298.99 298.26 298.26 299.71 304.61 309.84 314.51 321.03 327.78 330.17 331.57 332.60 333.76 335.51 339.03 346.51 351.44 350.94 351.15 351.17 350.20 348.84 347.50 346.17 344.53 342.23 338.65 334.60 329.52 324.93 322.56 320.40 318.67 318.18 317.80 315.63 313.50 311.97 310.38 308.68 306.66 305.35 304.89 304.81 305.82 308.13 309.85 311.66 313.76 315.36 316.24 316.49 316.82 315.78 314.65 310.66 304.53 300.22 296.14 292.58 289.52 287.62 286.35 285.81 285.57 285.47 285.48 284.75 283.66 282.76 281.86 281.09 280.62 279.97 279.14 278.85 278.68 278.05 278.23 278.54 278.93 279.71 280.88 282.91 285.38 284.28 285.17 285.67 285.03 284.64 285.42 286.24 285.05 284.80 283.65 281.36 278.70 273.20 271.52 270.75 269.53 268.89 268.70 268.56 268.43 268.47 268.42 268.31 268.10 268.08 267.84 267.78 267.70 267.64 267.59 267.60 267.52 267.45 267.34 267.32 267.26 267.20 267.13 266.95 266.89 266.37 266.31 266.25 266.19 266.14 266.10 266.06 266.02 265.99 266.08 266.14 265.96 265.76 265.56 265.44 265.04 264.72 264.47 264.08 263.94 264.39 264.89 264.38 264.35 264.53 264.37 265.28 267.03 267.78 268.02 268.54 270.05 273.54 280.64 284.09 283.20 279.42 276.01 274.47 271.84 268.57 264.76 262.97 261.99 261.77 261.83 262.05 262.29 262.54 262.80 263.07 263.35 263.63 263.92 264.20 264.49 264.77 265.05 266.29 268.03 268.86 269.85 269.95 269.07 266.71 263.73 262.45 262.35 261.98 261.96 262.40 261.98 260.72 259.64 259.26 259.59 259.81 255.28 260.33 266.60 267.95 269.35 270.37 273.03 277.02 282.26 285.96 287.48 287.16 286.89 291.01 295.31 300.52 306.84 313.61 320.62 325.24 329.98 334.46 336.12 336.29 333.67 329.32 325.67 321.65 317.16 310.47 295.62 285.00 279.43 270.55 257.79 255.24 252.79 245.79 238.05 233.16 224.24 209.52 200.43 185.51 166.84 158.64 150.82 145.72 143.81 141.96 140.42 138.85 138.91 143.94 151.16 152.69 151.56 155.00 154.12 161.06 179.58 192.42 198.86 200.67 188.84 176.97 180.75
339.47 335.98 329.89 325.53 318.91 312.54 306.90 302.30 299.59 301.72 309.68 319.90 327.50 334.17 342.17 352.70 360.61 365.21 366.72 367.56 369.22 372.59 375.39 377.38 378.29 377.78 376.91 376.70 376.82 377.09 377.50 377.80 378.23 378.41 378.78 379.42 380.97 381.15 380.25 379.65 378.31 377.78 374.07 370.48 367.73 364.52 361.48 360.05 359.84 363.23 367.19 371.23 377.42 382.58 387.68 396.19 399.36 399.60 400.80 401.82 399.03 393.81 393.83 396.51 398.73 400.81 399.54 395.75 388.79 379.09 376.07 374.04 378.77 387.96 388.95 389.16 387.51 382.19 374.18 366.84 359.09 350.39 345.42 340.01 335.99 329.31 323.42 317.39 315.58 318.91 325.24 330.88 330.23 327.68 326.46 322.57 318.74 313.61 306.87 303.34 300.80 299.10 297.66 297.05 297.04 299.07 303.84 306.03 310.49 314.64 318.22 325.03 330.29 333.00 335.08 339.93 354.10 358.17 355.59 353.19 352.03 350.07 347.86 346.56 345.29 344.36 344.53 343.26 338.33 335.46 331.31 325.19 322.53 321.60 321.12 321.01 319.43 316.01 313.19 310.31 307.86 305.43 304.08 303.73 303.76 304.74 307.03 308.77 310.75 313.43 315.68 317.36 318.57 318.69 316.77 314.05 307.16 301.44 297.17 293.38 290.62 288.24 286.51 285.52 285.28 285.09 285.13 285.41 285.29 285.59 284.57 283.36 281.69 280.53 279.97 279.27 278.63 277.82 276.90 276.69 276.63 276.94 277.97 279.19 280.79 283.37 282.20 282.15 282.25 282.27 282.20 282.24 282.97 283.53 282.37 281.30 279.74 275.16 274.04 273.96 272.26 271.13 269.80 268.92 268.72 268.59 268.51 268.51 268.38 268.33 268.24 268.12 267.97 267.82 267.81 267.82 267.77 267.69 267.67 267.56 267.56 267.50 267.49 267.46 267.42 267.34 267.11 266.70 266.66 266.63 266.61 266.58 266.57 266.56 266.56 266.56 266.54 266.50 266.39 266.15 265.83 265.49 265.15 264.83 264.51 264.21 263.92 263.64 263.37 263.28 263.97 264.40 264.98 265.75 263.78 262.84 262.79 262.81 265.03 270.07 278.79 280.17 277.39 273.71 271.55 268.82 265.31 262.68 262.07 261.88 262.05 262.24 262.45 262.67 262.91 263.15 263.41 263.67 263.93 264.20 264.47 264.74 265.01 265.27 266.77 268.90 270.19 271.92 271.84 269.72 267.15 264.96 263.72 262.61 262.08 261.78 261.18 260.82 260.47 260.27 259.48 256.96 254.03 249.14 253.85 262.87 264.38 264.71 265.54 267.18 270.67 274.95 277.57 278.79 281.04 284.31 289.81 294.79 300.95 309.52 315.92 322.90 327.81 331.99 337.31 339.60 340.24 337.10 334.19 333.08 330.32 327.53 320.26 307.35 293.88 286.15 279.33 269.38 266.50 261.27 254.69 244.69 242.32 235.11 221.61 208.59 194.33 174.45 164.86 157.34 151.50 144.67 142.96 141.03 137.85 136.32 136.22 144.75 149.95 150.35 147.18 143.30 146.83 155.46 171.95 186.09 186.22 176.38 174.48 174.07
337.55 331.91 328.76 325.15 318.92 312.92 307.50 302.94 300.03 301.41 308.39 318.09 328.47 336.98 343.11 351.71 357.40 360.67 362.42 364.29 367.09 369.92 372.81 375.13 376.71 376.99 376.62 376.65 376.71 377.15 377.56 377.85 378.00 378.56 380.45 382.39 383.45 381.49 377.79 375.26 370.07 367.70 364.85 361.71 359.78 358.35 356.00 356.64 360.65 365.25 369.33 372.70 377.89 382.32 386.67 393.72 399.30 398.61 398.72 400.53 399.73 396.91 395.46 396.50 397.27 398.47 396.95 390.05 382.41 376.63 373.73 371.76 377.02 386.85 389.05 389.89 389.13 383.86 375.53 366.81 358.90 349.84 345.32 341.03 337.46 333.74 325.55 316.66 317.98 326.01 333.23 336.46 336.94 334.21 331.93 328.36 323.01 317.71 311.14 307.10 304.34 301.36 298.48 296.68 296.12 296.07 297.57 300.09 304.52 309.71 313.66 321.80 329.45 333.10 335.34 341.47 356.81 358.01 355.20 352.82 350.57 345.89 343.22 341.88 341.36 342.17 344.06 345.17 341.61 335.65 332.17 326.91 323.26 321.37 319.92 318.91 318.40 315.90 311.52 308.41 305.94 303.75 302.23 302.09 302.42 302.70 304.59 306.53 308.88 312.45 315.32 317.94 320.36 319.30 316.09 313.08 305.65 299.94 295.02 292.00 289.57 287.26 285.84 285.29 285.19 285.48 286.06 286.97 287.25 287.14 286.01 283.80 281.62 279.54 279.04 278.58 277.70 277.04 276.13 275.62 275.28 275.57 276.21 277.36 278.06 280.20 280.87 279.81 279.63 279.86 280.36 280.48 280.85 282.00 281.67 280.81 279.72 276.08 275.86 275.82 275.26 274.16 273.11 272.12 271.13 270.33 269.24 268.63 268.44 268.37 268.28 268.22 268.13 268.11 268.04 268.09 268.03 267.96 267.91 267.86 267.82 267.75 267.71 267.68 267.68 267.57 267.46 267.28 267.24 267.30 267.36 267.22 267.04 267.07 267.11 267.14 267.17 267.20 267.16 266.87 266.48 266.10 265.74 265.40 265.09 264.80 264.52 264.24 263.98 263.71 263.73 263.56 263.69 263.47 262.59 262.37 262.21 262.07 262.15 264.80 270.89 275.46 274.11 271.58 268.53 265.54 263.36 262.03 262.16 262.30 262.46 262.64 262.83 263.04 263.26 263.49 263.73 263.97 264.23 264.48 264.73 264.99 265.24 265.49 267.76 270.13 272.27 273.52 272.96 270.99 268.44 266.32 265.02 263.79 262.90 262.11 261.68 262.24 262.29 263.67 263.10 260.88 261.56 248.01 249.81 257.17 260.72 261.45 261.52 262.66 265.29 268.54 270.60 274.19 279.55 283.55 288.10 294.75 301.03 309.68 316.69 323.41 328.07 332.79 337.93 340.96 341.38 339.33 337.05 337.16 335.15 331.97 324.98 314.04 300.66 293.15 287.50 278.13 275.48 269.63 262.01 251.08 247.69 242.04 231.43 215.77 197.16 180.93 171.85 163.65 159.36 154.53 150.92 147.81 142.42 138.73 134.31 131.18 128.93 135.94 143.16 140.44 141.41 145.71 152.18 164.17 167.16 163.93 172.99 168.40
336.46 329.86 328.26 325.03 318.91 313.11 307.90 303.52 300.58 300.97 306.99 316.54 326.78 336.38 344.17 349.89 354.51 357.46 360.18 362.69 366.03 368.69 371.50 374.07 376.28 376.83 376.41 376.46 376.51 377.30 378.02 378.08 378.47 381.99 384.37 388.64 385.66 380.69 377.31 371.48 366.34 362.48 358.19 356.52 355.15 354.81 353.50 357.02 361.59 365.05 367.90 371.63 376.57 381.51 386.43 393.05 396.68 396.93 397.57 398.23 398.70 398.36 397.56 397.14 396.70 394.81 391.32 383.71 379.01 374.88 371.59 370.10 373.35 386.96 389.17 390.84 386.50 381.19 374.50 367.94 359.57 350.65 345.33 342.05 338.18 334.36 325.46 316.53 319.80 331.00 335.38 338.31 338.02 337.16 335.15 331.67 326.96 322.35 314.83 310.03 306.92 304.18 299.94 297.46 296.36 295.22 295.06 296.18 299.97 305.19 311.29 317.41 326.59 331.54 334.49 342.17 356.39 356.20 353.53 350.69 346.78 340.18 338.38 337.83 337.77 338.77 341.35 345.56 342.38 334.72 330.72 325.71 323.35 321.42 318.33 315.74 314.20 311.43 307.90 305.16 303.46 301.84 300.36 299.85 300.14 300.06 301.21 304.06 306.39 310.31 314.44 318.17 321.56 320.16 316.37 311.99 304.64 298.29 293.29 290.81 288.92 286.58 285.56 285.52 285.79 286.12 286.75 287.02 287.56 287.53 286.06 283.59 280.93 279.45 278.98 278.30 277.39 276.75 276.04 275.03 274.26 274.31 274.75 275.66 276.27 277.37 279.59 278.52 278.52 278.96 279.42 279.87 280.36 281.00 280.95 279.77 279.46 279.57 278.43 278.37 279.18 278.67 277.63 277.26 275.45 273.26 271.22 269.74 268.93 268.51 268.28 268.18 268.26 268.38 268.28 268.32 268.26 268.20 268.15 268.08 268.06 268.04 267.92 267.91 267.86 267.90 267.75 267.70 267.73 267.69 267.71 267.75 267.76 267.90 267.72 267.64 267.69 267.79 267.88 267.48 267.03 266.62 266.25 265.93 265.63 265.35 265.08 264.82 264.56 264.30 264.04 263.79 263.69 263.37 263.11 262.92 262.75 262.60 262.48 262.66 264.04 266.38 266.22 265.93 264.35 263.22 262.56 262.46 262.57 262.70 262.85 263.02 263.20 263.39 263.60 263.82 264.04 264.27 264.51 264.75 264.99 265.23 265.47 266.48 269.37 271.53 274.50 275.30 274.62 272.89 271.27 269.91 268.86 267.64 267.10 266.61 266.59 267.46 268.16 268.48 268.43 267.40 266.11 247.78 242.47 249.03 255.62 256.60 256.71 258.63 262.71 265.14 267.27 272.08 276.70 281.57 287.63 294.25 300.87 307.79 316.01 321.84 326.98 331.30 335.39 340.59 341.92 339.89 336.78 336.78 334.84 332.13 325.74 315.76 303.32 296.25 290.17 283.00 280.01 275.03 267.69 256.16 251.16 245.34 237.97 221.85 199.68 184.33 178.02 172.25 167.49 164.93 161.97 158.64 152.95 150.87 139.82 135.90 129.24 125.84 136.86 139.16 141.18 141.58 142.97 147.53 149.16 157.03 164.77 157.91
337.50 328.97 328.29 325.08 318.86 313.10 308.02 303.82 300.96 300.23 305.61 315.72 325.92 335.23 342.99 346.94 351.19 354.76 358.46 361.58 365.04 368.20 370.68 373.49 376.26 376.77 376.25 376.70 376.44 377.46 378.81 379.67 381.59 383.24 385.50 388.82 383.05 378.42 374.55 368.70 364.29 357.53 354.37 352.53 351.77 351.79 350.35 355.05 360.36 361.30 363.96 369.22 373.77 380.34 385.35 389.30 394.08 395.74 396.96 397.08 396.00 395.87 394.77 395.44 395.13 389.86 387.35 382.92 377.62 371.85 369.73 368.94 372.11 387.25 388.34 390.31 385.21 379.99 373.96 367.74 359.74 351.75 344.93 342.59 337.76 334.24 326.25 317.13 317.99 331.30 337.44 339.08 339.64 340.00 337.92 335.14 331.29 325.93 319.27 311.57 308.81 305.20 301.05 298.41 296.37 296.04 294.70 294.29 298.41 304.02 309.85 314.89 321.84 331.06 332.07 336.88 349.60 353.89 350.79 347.71 342.60 339.19 337.67 337.24 337.18 337.10 337.62 344.96 342.29 334.74 329.75 324.75 323.33 319.98 315.82 312.72 309.10 305.58 303.49 302.30 301.36 300.15 298.85 298.13 297.86 297.87 298.65 301.40 304.01 307.69 313.02 318.13 322.64 321.15 316.45 310.60 302.94 296.35 291.33 289.19 287.58 285.50 284.77 284.85 284.77 284.80 285.36 286.23 286.51 285.85 284.18 282.43 279.92 279.58 279.85 278.96 277.58 276.49 275.78 274.66 273.85 273.57 274.17 274.94 275.81 276.62 277.38 277.93 278.47 278.99 279.48 280.06 280.49 280.49 280.48 280.68 280.32 280.76 281.94 282.26 284.16 283.80 282.41 281.75 280.86 277.63 273.96 272.14 270.93 269.76 268.73 268.41 268.45 268.45 268.51 268.53 268.50 268.39 268.28 268.29 268.28 268.26 268.16 268.18 268.12 268.10 268.02 268.04 267.99 267.98 268.04 268.12 268.25 268.33 268.58 268.01 268.02 268.04 268.04 267.80 267.40 267.02 266.69 266.39 266.12 265.86 265.62 265.37 265.13 264.87 264.61 264.35 264.10 263.86 263.64 263.44 263.26 263.10 262.97 262.86 262.78 262.73 262.69 262.68 263.14 262.74 262.80 262.87 262.98 263.09 263.23 263.38 263.55 263.74 264.96 265.00 264.75 264.84 265.13 265.55 265.90 265.47 266.48 267.76 271.04 273.41 276.13 277.37 277.17 277.14 275.75 274.83 274.31 273.85 273.24 273.33 274.17 275.10 275.89 275.71 274.69 273.01 269.73 256.81 237.46 241.75 248.89 247.69 245.71 254.76 262.01 263.95 265.75 269.22 272.25 278.28 287.64 295.23 302.28 309.99 316.38 320.59 324.04 328.63 334.03 340.28 340.91 336.34 334.20 334.64 335.13 333.30 326.25 314.29 302.36 296.43 290.22 285.56 279.99 274.33 269.61 261.71 253.70 248.03 239.20 220.65 202.83 193.29 184.87 179.80 174.71 172.08 173.46 168.70 165.41 165.98 152.99 146.98 135.04 122.81 122.69 135.14 141.82 141.04 138.61 137.02 139.00 149.45 151.74 148.13
339.04 328.71 328.07 325.03 318.59 312.73 307.64 303.50 300.86 301.31 307.51 316.84 326.53 335.43 342.86 346.25 350.09 352.97 356.91 359.72 363.02 366.07 368.74 370.78 374.50 375.60 375.80 375.86 375.98 376.61 378.22 380.92 382.66 384.41 385.98 385.39 380.28 376.47 370.59 365.58 358.55 353.40 351.89 350.10 349.28 348.85 348.56 349.90 352.87 356.33 362.24 367.07 373.30 379.11 385.13 388.73 392.74 395.62 396.88 396.12 394.19 393.20 391.92 391.38 389.81 386.48 383.64 380.45 377.15 371.30 368.60 368.67 373.34 386.50 387.35 389.07 385.11 379.81 372.39 364.93 357.68 349.06 344.05 342.10 337.34 332.31 324.99 317.02 318.98 332.05 339.58 341.61 341.17 342.43 340.31 337.85 333.41 326.20 320.82 314.85 311.37 306.04 300.09 297.63 296.29 295.39 294.42 294.17 297.19 303.60 310.24 314.15 319.31 325.92 329.20 333.36 344.78 351.88 348.92 345.02 338.95 338.38 337.76 337.56 337.38 336.87 336.93 342.81 341.80 334.49 327.68 324.06 322.51 317.77 314.14 310.31 306.02 303.32 301.58 300.64 300.33 299.71 298.26 297.12 296.81 296.46 297.15 298.98 301.40 305.13 310.71 315.58 319.19 318.11 313.49 306.77 299.65 293.50 289.59 287.11 284.88 283.29 282.93 282.31 282.20 282.43 283.12 283.90 283.87 283.30 282.48 281.37 279.42 278.93 278.86 278.22 277.50 276.66 275.50 274.61 273.74 273.55 274.27 275.15 275.96 276.72 277.42 278.05 278.58 279.06 279.54 280.08 280.35 280.72 281.96 281.91 281.81 281.30 281.86 282.98 283.77 284.63 284.92 285.23 283.31 279.89 276.47 274.37 272.97 271.47 270.52 270.23 270.55 270.68 269.41 268.89 268.60 268.54 268.49 268.49 268.48 268.44 268.43 268.37 268.35 268.28 268.29 268.32 268.25 268.24 268.33 268.43 268.42 268.45 268.45 268.44 268.04 268.04 268.04 268.13 267.61 267.31 267.04 266.78 266.55 266.33 266.12 265.90 265.67 265.42 265.15 264.88 264.62 264.37 264.13 263.92 263.74 263.57 263.43 263.32 263.23 263.17 263.13 263.11 263.12 263.15 263.20 263.27 263.36 263.47 263.59 263.79 264.72 266.43 267.67 267.40 267.13 266.86 267.26 268.09 268.03 268.11 268.73 270.00 273.83 275.84 277.61 279.12 280.93 282.17 282.25 281.97 281.61 281.20 280.66 281.06 282.01 282.40 282.03 281.11 279.78 277.54 273.21 254.28 234.98 235.30 238.62 239.09 238.83 243.23 255.64 260.08 262.34 265.56 269.26 274.70 282.84 290.60 297.67 306.79 314.50 318.69 323.34 327.27 331.24 335.73 335.66 332.79 331.46 332.70 332.98 329.86 321.52 310.34 299.58 294.40 287.65 282.48 274.78 271.49 270.39 262.57 253.37 241.90 231.18 217.24 206.96 199.18 193.17 187.34 181.99 181.82 184.66 182.41 178.70 177.99 167.57 156.72 139.90 127.18 118.69 118.21 124.61 129.63 132.81 132.34 135.28 139.94 142.34 142.62
339.64 329.34 327.77 324.67 318.01 312.03 306.84 302.66 300.46 302.97 310.02 318.99 328.20 336.73 343.91 346.66 349.31 352.23 355.13 358.31 361.56 363.73 367.04 370.11 373.08 374.56 375.06 375.22 375.56 375.87 378.02 381.39 383.94 384.79 385.63 383.38 378.63 373.53 367.93 362.38 353.80 349.80 347.62 346.54 346.40 346.31 346.78 347.10 349.23 352.24 360.31 365.52 373.48 379.94 384.47 388.58 393.66 396.41 397.85 396.76 393.70 391.04 389.47 387.75 385.25 382.31 380.30 378.42 374.53 369.76 367.37 368.93 372.97 384.94 387.11 389.16 382.81 376.96 369.89 362.30 355.30 346.23 342.67 339.60 335.74 331.58 323.87 317.15 319.43 332.45 339.93 341.70 342.42 343.76 341.97 336.36 331.85 324.98 320.34 315.90 312.16 307.10 299.30 296.32 295.62 294.86 294.12 294.00 297.15 300.51 308.34 311.16 316.45 322.59 326.73 331.01 340.96 348.48 346.03 342.01 337.44 337.57 337.70 337.20 336.80 334.99 334.93 338.42 338.77 332.92 326.32 323.48 321.24 315.94 312.39 307.60 303.55 301.82 299.70 299.78 300.66 300.19 298.70 297.09 296.73 295.94 295.63 296.49 297.99 301.83 306.58 310.66 312.99 311.14 307.76 303.62 296.56 291.31 287.75 284.81 282.17 280.81 280.90 280.49 280.35 280.63 281.05 282.10 282.25 281.57 280.97 280.12 278.94 278.00 276.67 276.88 277.79 277.30 275.52 274.57 273.65 273.68 274.52 275.47 276.22 276.94 277.57 278.19 278.75 279.23 279.69 280.02 280.40 280.96 281.67 282.77 282.84 282.21 282.10 282.39 282.74 283.50 285.53 286.63 284.89 281.99 278.48 276.66 275.30 273.67 272.63 272.59 273.05 272.77 270.06 269.25 268.89 268.69 268.68 268.65 268.63 268.64 268.57 268.52 268.45 268.41 268.49 268.45 268.39 268.37 268.37 268.47 268.46 268.43 268.41 268.43 268.35 268.33 269.17 269.03 268.02 267.56 267.32 267.12 266.94 266.76 266.60 266.42 266.21 265.96 265.68 265.39 265.11 264.84 264.60 264.38 264.18 264.01 263.87 263.75 263.65 263.58 263.54 263.52 263.51 263.54 263.58 263.64 263.72 263.82 264.21 265.14 266.52 267.76 268.82 269.53 269.79 270.25 270.95 270.89 270.64 270.77 271.49 272.90 275.27 277.38 278.93 280.69 283.91 286.24 287.50 288.30 287.78 285.31 284.44 284.33 284.39 283.26 282.04 280.81 279.89 278.26 274.23 258.46 239.19 228.08 227.83 230.91 233.89 239.03 251.05 258.89 261.61 264.80 268.95 275.50 282.83 289.58 296.07 303.49 310.70 316.47 321.91 324.82 326.33 327.21 327.91 328.22 327.64 329.12 328.61 323.55 315.11 307.52 297.96 288.22 283.56 272.70 267.30 269.08 264.65 256.32 244.44 237.91 232.01 218.49 210.08 204.66 201.83 195.46 192.01 192.61 196.55 197.46 193.10 191.09 181.43 167.97 148.25 134.19 119.48 113.97 109.99 110.79 114.52 121.32 130.32 137.93 138.24 138.11
338.18 328.42 327.49 323.93 317.10 311.01 305.79 301.74 300.54 305.38 312.93 321.76 330.70 339.01 344.57 347.11 350.78 354.54 356.70 360.13 362.77 364.57 367.88 371.32 373.99 375.76 375.64 375.62 375.91 375.95 379.25 382.49 384.88 384.86 384.24 380.15 376.06 372.26 365.95 358.37 351.02 347.03 345.75 345.75 345.71 345.33 344.51 345.19 347.90 351.30 359.02 365.41 374.06 380.89 384.71 391.03 396.21 400.13 399.80 397.85 394.15 390.07 387.15 383.20 380.17 377.42 375.44 372.64 369.27 367.14 366.72 369.16 373.14 384.79 387.24 385.59 379.45 373.60 367.53 359.82 352.60 344.10 340.38 336.77 334.25 330.34 320.81 316.79 325.11 335.06 339.93 341.16 342.01 343.46 341.95 334.05 329.43 324.40 319.54 313.22 309.46 304.53 300.09 296.01 294.47 294.20 293.87 294.66 296.25 298.37 302.15 309.64 314.66 319.46 325.83 328.44 334.50 340.71 340.83 337.07 335.83 336.51 337.29 336.19 334.86 333.04 331.49 332.89 332.80 329.47 324.62 322.92 320.35 314.86 310.91 306.56 302.64 299.93 298.22 297.63 298.45 298.52 297.58 296.40 295.57 294.13 293.01 292.72 292.69 296.49 301.19 304.98 306.17 303.45 302.79 297.85 292.89 287.53 284.51 282.53 280.33 278.95 278.99 278.88 278.61 278.74 279.52 280.58 280.80 280.41 279.76 279.06 278.45 277.53 276.01 276.23 276.62 276.23 275.76 274.51 273.82 274.12 274.93 275.86 276.58 277.30 277.83 278.33 278.88 279.33 279.76 280.18 280.62 281.51 282.49 283.01 282.60 282.35 282.17 282.35 282.53 283.60 286.12 287.21 286.25 284.28 281.91 279.73 277.91 275.50 275.05 275.42 274.53 271.98 270.61 270.08 269.37 268.93 268.77 268.71 268.81 268.76 268.61 268.56 268.51 268.57 268.53 268.49 268.47 268.51 268.51 268.53 269.75 271.41 272.58 273.36 272.29 271.67 271.40 271.94 268.40 267.76 267.56 267.41 267.28 267.16 267.05 266.93 266.76 266.50 266.19 265.87 265.57 265.29 265.03 264.80 264.60 264.43 264.28 264.15 264.05 263.98 263.93 263.90 263.89 263.91 263.94 263.99 264.49 265.72 266.31 266.29 266.55 267.30 268.99 270.77 271.73 272.13 273.22 273.47 273.21 273.16 273.35 274.00 275.65 278.38 280.26 281.98 285.51 289.10 291.05 291.82 290.70 286.48 284.15 281.18 279.73 278.38 275.22 273.50 273.90 273.15 269.55 255.91 239.69 219.47 219.38 225.65 228.51 239.25 252.18 259.34 262.83 265.34 269.93 276.85 282.36 286.78 293.61 302.03 308.05 313.35 316.48 316.48 313.23 315.12 319.30 321.15 321.69 323.49 321.45 314.91 309.38 299.82 289.76 282.19 269.33 263.24 265.29 264.44 254.24 243.50 240.48 238.73 231.30 216.44 210.14 209.41 206.00 202.63 201.03 203.45 206.71 210.42 205.15 203.50 195.22 177.48 155.88 140.46 121.43 114.53 108.52 104.79 103.58 105.25 114.50 132.61 127.18 123.45
333.69 327.82 327.31 322.70 315.79 309.69 304.60 300.83 301.43 307.81 315.99 324.95 333.84 340.40 344.08 347.32 352.57 356.36 360.43 365.11 367.18 368.70 370.98 373.66 378.67 381.34 381.42 380.39 378.87 378.21 380.15 382.71 384.04 383.19 381.48 377.35 374.25 369.67 361.21 354.82 348.71 345.82 345.76 345.62 344.96 344.17 343.80 345.62 347.01 350.80 357.38 366.63 374.42 382.95 389.28 396.68 400.89 403.03 400.77 397.89 394.25 389.13 382.10 376.89 373.66 370.43 369.41 368.06 365.55 364.71 367.71 370.44 376.22 385.52 386.02 382.68 377.58 371.47 365.67 359.00 350.93 342.95 337.95 334.74 332.37 324.36 317.49 317.67 329.38 337.61 340.23 341.42 342.90 344.18 339.68 333.77 328.82 324.86 318.57 310.43 308.22 304.42 300.23 296.58 293.91 293.78 293.81 293.95 294.84 297.17 299.55 306.11 312.23 318.69 323.31 324.93 328.68 336.28 337.71 335.57 334.18 334.01 333.56 331.67 329.22 327.67 327.56 327.77 327.98 326.89 324.41 322.29 319.12 312.68 308.92 306.59 302.53 299.58 297.86 296.36 295.47 295.31 294.89 295.01 294.16 292.31 290.53 289.54 287.98 290.35 294.44 298.04 299.71 299.44 297.97 292.19 287.48 283.51 281.49 279.74 278.37 277.18 277.22 277.85 278.07 278.39 278.98 279.70 280.37 280.08 279.46 278.57 278.05 277.39 276.72 276.71 276.33 275.22 274.80 273.98 274.16 274.87 275.61 276.31 277.04 277.63 278.21 278.75 279.20 279.68 280.17 280.90 282.06 282.92 283.24 282.67 282.35 282.35 282.33 282.42 282.76 284.35 287.14 288.06 287.22 285.77 283.67 283.18 281.47 278.56 277.97 277.07 274.20 272.88 273.80 275.15 274.73 271.92 270.06 269.30 269.30 269.21 269.22 268.76 268.71 268.74 268.66 268.62 268.55 268.67 269.58 271.74 275.46 278.15 278.82 278.88 277.54 276.50 276.01 272.18 268.78 268.41 268.04 267.70 267.58 267.51 267.47 267.43 267.32 267.02 266.66 266.31 265.98 265.69 265.42 265.19 264.98 264.80 264.65 264.53 264.42 264.34 264.29 264.26 264.24 264.38 265.19 265.79 267.08 267.36 266.60 266.46 266.61 267.09 269.12 270.93 271.69 272.21 272.99 274.59 274.90 274.24 274.18 274.65 276.06 279.06 281.71 284.21 286.57 289.88 291.41 290.34 288.76 286.20 283.07 277.44 272.04 266.72 264.36 261.69 261.37 263.71 262.78 249.84 231.07 209.65 208.99 215.94 220.52 232.90 242.44 252.36 262.60 267.90 272.15 275.84 278.36 281.66 283.70 292.82 301.51 303.88 301.54 298.75 298.85 300.59 303.78 309.07 312.63 315.23 312.53 301.87 294.98 288.90 275.73 266.18 260.91 260.48 259.14 251.29 245.00 240.34 239.42 234.72 224.78 214.18 209.69 209.75 207.92 206.75 209.68 212.50 216.51 219.47 216.45 213.56 203.73 185.02 169.92 147.35 129.25 115.56 108.96 103.73 101.99 101.33 107.66 130.42 125.22 117.48
330.15 327.73 327.05 321.02 314.14 308.11 303.32 300.70 303.92 310.81 319.23 328.35 336.71 340.97 344.52 349.51 355.73 361.50 367.89 371.14 373.49 375.83 377.77 381.90 387.49 391.26 386.70 383.35 381.94 380.88 380.57 381.27 382.51 381.65 379.14 375.47 371.75 365.68 357.08 351.34 346.21 345.57 345.08 344.51 344.01 343.68 344.72 345.76 347.00 351.33 360.74 369.34 378.21 387.45 398.05 404.81 406.95 404.81 399.14 395.62 392.47 386.43 376.84 372.17 369.17 366.81 365.62 364.17 362.22 366.24 369.71 372.95 382.91 384.75 384.43 381.80 376.09 371.20 365.48 358.92 349.74 341.52 335.91 331.81 327.25 318.71 317.86 322.69 330.74 337.35 339.60 340.86 345.15 345.90 340.49 335.33 330.63 326.83 320.27 311.56 308.74 305.91 301.25 297.95 294.32 293.59 293.52 293.56 294.35 296.06 298.49 303.40 308.98 313.30 318.68 321.97 324.84 328.78 334.24 335.06 333.37 330.21 326.52 324.84 324.44 324.17 324.65 324.74 324.96 326.35 324.04 321.13 317.85 312.53 308.14 306.29 303.05 299.63 297.66 295.57 294.57 294.50 294.39 293.96 293.41 291.78 289.99 289.15 287.65 288.46 291.19 293.79 294.15 292.80 290.16 285.52 282.77 280.12 278.67 277.45 277.11 277.20 277.55 278.12 278.55 278.93 279.72 280.38 280.87 280.87 280.75 279.98 279.37 278.74 278.13 277.51 276.49 274.75 273.93 274.38 274.95 275.85 276.58 277.29 277.83 278.45 279.22 280.26 280.55 280.71 281.32 282.52 283.22 282.70 282.45 282.36 282.35 282.39 282.47 282.58 283.82 286.38 287.96 287.71 286.97 285.95 284.85 283.24 282.25 280.69 278.96 277.10 275.35 276.00 278.84 281.10 281.51 278.00 274.57 272.25 272.13 272.33 272.62 271.09 269.40 268.93 268.83 268.80 269.13 271.03 273.32 276.68 279.32 280.96 281.20 280.83 279.04 278.05 276.78 272.43 269.82 268.97 268.68 268.35 267.87 267.79 267.81 267.86 267.85 267.48 267.06 266.68 266.34 266.19 266.07 265.90 265.81 265.79 265.72 265.85 265.84 265.46 264.93 264.83 264.92 265.47 267.83 268.01 268.11 268.04 267.23 266.75 266.89 267.26 268.27 269.39 269.46 269.54 269.56 270.60 272.77 275.05 275.11 275.49 277.38 280.13 283.11 285.23 286.58 287.30 289.33 288.68 287.70 284.73 280.20 274.20 268.54 264.84 260.26 256.60 254.99 254.45 253.97 243.00 216.23 193.29 189.35 189.47 196.41 214.72 228.33 239.18 249.38 259.22 267.62 270.82 272.84 275.90 278.13 280.26 284.96 287.07 285.65 284.81 284.32 287.02 288.40 292.73 300.17 304.11 297.83 288.12 283.55 276.34 266.91 259.44 255.97 251.66 244.45 243.51 242.93 236.49 232.97 229.39 224.60 214.01 209.74 209.47 209.57 210.76 217.04 218.86 224.06 227.25 224.20 222.11 210.31 197.88 181.25 156.39 135.27 119.90 111.07 103.90 101.73 99.70 102.78 126.83 128.84 115.73
328.40 327.77 326.07 318.96 312.24 306.37 301.98 301.60 306.35 313.73 322.39 331.68 339.13 342.17 347.78 354.85 363.13 371.17 375.87 379.48 383.37 386.35 389.25 392.15 398.87 394.89 386.70 382.81 380.88 379.35 379.06 379.79 380.79 379.05 376.17 372.58 367.12 360.37 354.29 349.00 345.58 344.66 344.06 343.73 343.60 344.55 345.76 345.66 349.50 356.80 365.36 372.85 381.06 392.98 403.66 410.09 412.11 406.07 397.28 393.25 389.97 383.09 373.80 370.39 366.58 364.30 363.15 360.48 364.64 368.32 374.60 382.75 384.68 384.28 384.19 380.81 374.94 370.14 364.49 357.34 346.85 340.32 333.73 328.63 321.26 317.98 318.79 325.64 329.76 336.95 338.87 339.87 348.69 348.22 342.83 337.04 332.71 327.90 323.35 316.67 311.03 308.25 303.96 300.07 295.73 294.26 293.50 293.46 294.37 296.41 297.93 301.68 306.04 308.77 313.76 317.62 321.76 324.60 330.51 333.60 331.79 325.29 322.56 322.09 320.61 319.81 320.44 322.27 323.54 324.14 321.90 319.93 317.05 312.43 307.49 305.77 303.00 299.49 297.14 295.03 294.23 294.46 294.31 293.29 292.08 291.09 288.94 287.64 287.48 286.00 285.81 286.76 286.13 285.27 282.62 280.62 279.16 278.26 277.77 277.45 277.46 277.87 278.81 279.45 279.77 280.78 281.85 282.77 283.14 283.91 284.84 284.57 281.03 279.53 278.98 277.36 275.90 275.19 275.20 275.77 276.63 277.93 278.57 279.96 280.28 280.66 281.73 283.38 283.39 282.78 282.94 282.56 282.23 282.16 282.31 282.35 282.34 282.50 282.61 282.85 283.99 285.41 286.46 286.70 286.34 285.81 285.66 283.09 281.78 280.92 279.23 278.22 278.21 278.76 280.51 281.66 282.83 281.42 279.29 278.19 277.11 277.36 276.95 274.48 271.24 269.51 269.32 271.95 274.45 276.17 277.75 279.86 281.29 281.17 279.97 279.37 278.84 278.01 276.03 275.04 274.62 274.07 273.61 271.83 270.32 268.43 268.01 268.03 268.03 267.73 267.34 267.16 267.82 268.61 268.81 269.45 269.67 269.92 270.50 270.90 270.50 269.16 267.19 266.73 266.75 266.42 268.45 268.36 268.25 268.45 268.81 267.27 266.97 267.00 267.10 267.12 266.87 266.84 267.20 268.40 270.27 273.41 276.44 277.71 279.46 280.94 281.99 282.94 284.42 285.77 286.70 286.02 285.82 285.04 281.73 276.58 267.64 265.27 260.54 255.66 253.36 251.80 248.22 235.84 208.14 183.70 178.39 175.95 174.61 182.80 206.57 222.77 236.31 244.54 253.50 264.68 268.29 265.45 263.14 264.84 267.78 271.36 272.03 273.43 273.45 274.20 277.77 282.17 286.82 284.95 280.35 278.31 272.48 265.37 259.02 255.03 250.04 239.90 238.79 242.58 238.94 233.44 228.11 226.48 219.90 213.22 210.03 209.43 209.54 212.55 219.78 223.03 229.26 233.96 230.26 226.82 213.05 204.98 188.66 162.56 141.97 125.29 113.11 104.30 101.36 99.10 97.66 113.00 127.62 117.09
327.74 327.64 323.51 316.74 310.33 304.65 301.20 302.86 308.46 316.20 325.13 334.51 340.39 344.90 353.67 361.58 369.57 377.29 381.83 387.14 390.43 391.71 391.74 391.76 392.23 388.43 383.45 381.44 379.60 378.17 377.36 377.71 376.63 374.31 371.13 367.79 362.93 358.26 352.62 347.19 345.59 344.16 343.65 343.73 344.40 345.63 345.80 345.90 352.58 360.91 368.73 376.07 383.85 397.51 407.29 414.31 412.92 404.48 395.94 391.33 386.99 379.20 372.55 369.94 365.31 362.08 359.09 360.30 365.64 370.40 374.94 382.54 383.74 383.83 383.20 380.40 374.29 367.18 361.89 354.89 344.98 339.47 333.19 326.65 319.56 317.57 319.49 328.01 331.87 336.70 338.73 344.18 354.18 349.82 345.20 339.21 333.11 329.76 326.03 321.66 316.90 312.52 310.34 306.06 302.07 295.61 293.71 293.47 293.86 296.04 298.35 301.60 304.80 306.60 308.52 313.87 319.45 323.18 326.88 329.84 327.18 323.21 320.48 319.31 317.91 317.96 319.23 322.32 322.86 321.94 320.86 318.41 316.79 311.74 307.45 305.62 303.10 299.62 296.79 294.81 293.76 293.69 293.90 292.68 291.21 289.83 288.12 285.74 282.17 280.87 280.38 279.89 280.71 280.00 279.37 278.85 278.46 278.19 278.11 278.24 278.74 279.83 281.25 282.42 283.28 284.72 285.91 287.00 287.70 287.98 288.41 287.64 282.15 279.98 278.61 277.66 276.74 276.68 277.48 278.68 280.36 282.56 284.09 284.20 284.11 283.94 284.50 286.00 284.94 283.12 281.88 281.98 282.09 282.19 282.31 282.50 282.85 283.05 282.99 283.07 283.54 284.68 285.62 286.04 286.08 285.64 285.92 283.08 281.45 280.57 280.01 279.83 279.91 280.08 281.11 282.90 285.45 285.20 283.69 282.79 282.67 282.82 281.04 278.12 275.86 273.91 274.34 277.22 278.94 280.67 282.05 282.38 283.10 281.88 279.34 278.72 278.29 277.23 276.47 277.91 278.62 279.57 279.36 278.00 275.32 272.27 270.04 268.59 268.36 268.47 269.24 270.94 273.25 275.15 275.67 276.48 277.58 278.17 277.42 275.94 274.46 273.20 271.71 269.05 266.81 266.00 266.01 266.76 267.89 267.50 267.34 267.13 266.79 266.29 266.20 266.24 266.35 266.61 266.92 268.19 270.32 272.93 276.54 278.89 278.64 278.38 278.92 279.79 281.61 282.53 282.99 283.95 284.73 286.36 284.95 281.27 270.84 268.07 267.23 258.90 256.42 253.04 248.45 235.73 217.66 204.46 200.80 192.14 176.75 170.74 178.12 196.65 206.53 223.55 235.60 247.70 253.72 252.35 251.11 247.99 252.47 261.31 263.58 264.85 265.40 265.45 267.08 266.53 266.18 265.18 265.04 263.80 257.20 250.68 249.75 249.36 240.57 236.22 238.76 239.49 235.47 230.41 227.32 223.40 212.48 210.12 209.69 209.52 209.69 213.39 219.77 227.74 234.03 235.99 234.13 228.99 216.22 207.79 190.85 166.10 146.46 131.87 116.50 109.04 102.44 99.38 97.75 97.30 105.42 118.44
328.58 326.52 320.86 314.68 308.78 303.49 300.91 303.72 309.80 317.90 327.22 336.85 341.84 348.23 357.40 366.98 376.70 382.71 384.53 385.30 386.80 390.40 390.44 389.86 388.25 383.74 381.68 380.59 378.64 376.24 374.07 373.18 371.66 369.78 366.54 363.74 359.74 355.39 350.09 346.44 345.06 343.83 343.88 345.10 345.69 345.77 345.71 347.46 356.15 364.09 371.26 378.98 389.34 402.42 411.60 416.38 411.32 401.81 395.16 390.84 384.48 376.32 371.91 369.11 363.53 360.67 356.42 361.42 366.96 369.51 371.27 377.45 381.38 381.89 381.09 378.54 372.15 363.57 359.15 352.06 343.59 337.91 332.34 325.37 319.16 317.51 319.73 328.20 333.36 336.72 339.02 352.13 356.98 350.89 346.00 341.07 335.06 331.82 328.83 325.16 322.46 320.88 318.56 312.76 308.16 302.05 296.11 293.42 292.29 295.77 301.30 303.67 303.44 302.82 303.73 309.26 317.14 322.06 324.54 326.61 326.11 322.14 319.12 316.22 315.79 315.99 317.37 321.31 322.02 321.12 318.79 317.28 315.62 310.38 307.06 305.69 303.90 300.16 296.99 294.96 293.32 292.67 292.85 290.90 289.25 287.49 284.78 281.74 279.77 278.49 278.03 278.18 278.52 278.46 278.49 278.61 278.73 278.87 279.19 280.28 281.61 283.07 285.14 286.74 287.93 289.45 290.58 291.40 291.63 290.87 289.16 286.43 283.41 281.47 280.25 279.11 278.50 278.74 279.98 282.13 285.04 287.53 288.31 288.10 287.69 287.25 286.77 287.12 285.17 282.86 282.05 282.01 282.13 282.31 282.60 283.03 283.32 283.19 283.15 283.38 283.57 284.75 285.48 285.98 286.12 285.50 285.62 285.11 282.17 280.60 280.36 280.76 280.96 282.12 284.79 287.20 289.34 289.44 287.83 286.76 286.00 285.56 284.46 281.71 281.40 280.30 280.82 282.99 283.72 284.64 284.92 284.16 282.66 281.00 279.05 278.27 277.66 277.38 277.55 279.22 281.32 281.93 282.11 282.57 281.42 279.47 275.33 271.91 271.50 272.46 274.65 277.00 279.63 282.33 283.52 284.21 284.17 283.11 281.29 279.52 277.99 276.10 272.73 269.59 267.35 266.42 266.16 266.17 266.48 266.43 266.36 266.29 266.30 266.13 266.23 266.41 266.53 266.68 267.14 268.52 270.91 272.67 274.51 276.45 276.80 276.76 277.02 276.73 277.12 277.93 279.37 281.34 282.81 284.84 285.21 279.78 272.80 270.43 271.40 267.47 262.96 258.33 252.12 240.42 236.07 229.40 222.05 212.67 196.84 176.83 167.79 168.36 175.80 195.69 213.38 227.16 236.38 237.67 234.72 238.04 243.98 254.39 257.34 258.01 257.37 255.08 252.13 249.95 247.51 248.65 251.01 250.64 245.02 243.25 244.93 241.92 235.88 235.15 239.42 237.33 232.35 227.10 222.88 214.97 209.66 209.36 209.42 209.59 210.95 213.62 223.00 231.52 235.81 236.71 236.69 231.02 220.57 210.50 189.34 169.96 152.32 141.10 125.71 114.02 106.74 100.25 97.86 96.39 96.87 102.57
329.76 324.13 318.34 312.87 307.74 303.17 301.16 304.09 310.25 318.60 328.32 338.40 343.92 351.85 360.17 370.32 379.57 381.37 380.12 381.50 382.00 384.76 388.49 389.03 385.39 381.69 380.67 379.34 376.93 373.97 370.73 368.93 367.22 365.17 362.79 358.81 355.90 351.56 347.65 345.17 343.74 343.58 344.89 345.71 345.70 345.73 346.07 351.56 359.81 367.32 374.75 383.75 395.90 406.97 414.85 414.70 407.32 399.91 395.30 388.93 379.47 373.02 370.09 366.46 360.58 355.85 355.74 362.22 366.62 367.63 370.00 372.95 378.05 379.80 378.26 375.63 369.58 361.97 357.05 351.43 344.59 336.35 331.00 323.21 318.94 317.61 319.46 326.27 332.53 337.05 342.12 356.82 361.25 354.15 348.30 343.14 338.97 334.66 332.05 329.43 326.33 324.75 323.45 319.63 312.76 307.51 301.15 294.31 290.01 292.04 299.83 300.57 299.65 299.74 300.38 304.76 312.92 319.95 323.73 326.05 323.68 320.39 317.45 315.25 315.00 315.17 315.01 315.64 316.36 317.41 316.60 316.18 314.88 309.28 306.72 305.68 304.68 300.65 298.09 295.62 293.52 292.29 292.46 288.20 285.79 285.82 283.28 280.84 279.80 279.13 279.03 279.12 279.21 279.31 279.23 279.18 280.00 280.89 282.04 283.93 285.86 287.51 289.47 291.09 292.48 293.81 294.67 294.77 292.37 290.49 288.78 287.32 285.04 283.53 282.46 281.07 280.75 281.22 282.62 285.87 289.97 292.10 292.21 291.55 290.45 288.81 287.16 286.65 284.80 283.34 282.66 282.44 282.38 282.63 282.98 283.19 283.13 283.17 283.25 283.46 284.06 285.72 286.57 286.42 286.06 285.37 284.96 286.05 283.74 281.35 280.89 281.32 282.63 284.50 286.87 288.41 289.14 289.47 289.70 289.07 288.81 287.62 286.83 286.68 286.72 286.68 287.43 287.78 287.42 286.57 284.93 283.15 281.80 280.95 279.63 279.11 278.88 278.95 280.09 281.88 283.57 283.70 283.44 283.84 282.49 279.55 277.37 276.03 276.52 278.60 280.92 283.48 286.26 288.71 289.61 288.47 287.19 285.57 283.66 281.20 279.29 277.33 275.00 272.31 269.56 267.82 266.60 266.46 266.47 266.46 266.33 266.40 266.46 266.38 266.40 266.58 266.73 266.83 267.41 268.37 269.82 271.39 273.12 276.01 275.99 275.09 274.88 274.77 275.11 275.67 277.61 279.24 279.98 280.89 278.47 273.80 272.21 272.06 272.87 271.98 271.03 266.94 258.54 249.83 246.44 246.12 244.50 234.34 218.16 201.04 184.74 168.27 161.53 169.02 188.86 209.77 219.40 224.75 225.81 230.41 238.39 245.01 250.10 247.67 244.68 243.74 244.06 240.79 237.90 239.11 239.42 236.26 236.74 240.05 241.43 236.24 233.51 237.11 237.99 235.78 230.64 221.90 216.31 212.45 209.42 209.01 209.14 210.88 216.48 218.32 225.28 231.76 233.76 238.11 239.29 234.24 225.74 213.23 191.19 172.73 155.92 145.47 130.97 121.62 115.06 103.31 98.69 97.02 94.89 94.24
327.06 320.93 315.78 311.26 307.13 303.25 301.00 303.53 309.61 317.82 327.45 337.69 343.87 352.22 360.34 370.26 376.94 374.86 374.83 375.98 376.74 378.77 383.51 386.20 383.36 380.10 379.17 377.36 374.85 371.77 368.29 365.89 363.18 360.86 357.08 354.07 350.90 346.86 345.09 343.15 343.08 344.80 345.67 345.79 346.04 347.02 351.73 356.47 363.05 370.81 377.87 387.74 400.29 408.98 413.78 409.99 402.99 397.70 392.84 383.43 373.76 369.05 367.12 361.98 358.34 352.84 356.97 362.91 365.87 367.46 371.00 372.82 374.00 377.89 375.65 372.33 367.19 360.83 355.22 349.88 343.70 335.64 329.64 322.11 318.46 317.84 319.63 324.95 332.22 337.56 343.97 354.34 364.58 358.75 349.86 343.66 341.08 339.69 336.83 332.98 330.16 328.57 326.21 322.21 317.58 311.51 305.45 300.30 290.50 289.40 291.75 294.40 293.87 295.83 297.85 301.64 309.83 316.69 320.70 323.08 320.07 319.43 317.31 315.30 314.45 314.94 314.25 313.54 313.50 313.43 312.65 313.72 313.11 309.13 306.95 306.02 305.49 303.38 299.37 296.42 294.02 292.06 290.03 287.52 285.52 284.18 283.91 282.21 281.33 280.82 280.60 280.65 280.57 280.46 280.31 280.45 282.15 284.46 286.15 287.97 290.38 292.36 293.59 294.62 295.33 295.04 293.63 292.62 291.61 290.90 290.03 288.83 287.05 285.53 284.46 283.51 283.25 284.09 286.30 289.53 293.37 295.58 294.89 293.08 290.54 288.31 287.02 286.72 285.85 284.74 283.75 283.29 283.18 283.31 283.75 284.07 283.64 283.61 284.13 285.30 288.39 289.23 288.39 287.46 287.00 286.23 285.37 285.70 285.22 284.22 283.44 283.48 283.80 284.79 287.09 288.57 289.86 290.41 290.53 290.30 290.21 289.66 289.53 290.00 289.63 289.31 290.00 290.69 290.30 287.70 284.39 281.83 281.33 280.98 280.52 281.38 280.62 281.05 282.14 283.71 285.72 286.04 285.16 283.77 282.40 280.38 279.56 279.98 281.60 284.11 286.47 289.16 290.79 291.43 290.24 289.15 288.35 286.39 284.02 282.23 281.38 281.09 279.58 276.37 273.10 270.00 267.43 266.73 266.72 266.70 266.68 266.57 266.62 266.71 266.69 266.75 266.80 266.94 267.43 268.04 269.27 271.20 273.23 276.80 275.47 274.57 274.47 274.42 274.66 275.32 276.08 276.07 274.99 274.10 270.64 268.56 268.57 269.50 271.23 273.40 275.08 275.20 267.15 262.78 261.35 259.93 258.68 253.80 240.84 226.23 210.36 187.45 163.00 159.14 166.08 187.83 204.21 214.58 219.40 225.56 233.23 238.70 234.12 232.73 235.40 240.04 240.13 234.94 232.48 231.29 228.97 229.33 234.14 238.05 239.36 232.99 233.46 239.18 237.65 233.50 225.64 215.34 213.05 209.42 209.10 208.47 209.31 215.77 222.84 224.17 227.19 231.02 232.96 240.16 241.70 238.67 230.21 218.93 196.87 179.20 161.60 149.40 137.01 135.87 130.85 115.27 105.94 104.93 105.26 98.80
322.56 317.15 313.25 310.07 307.23 304.34 301.86 302.83 307.99 315.45 324.28 333.70 339.00 344.48 352.42 361.52 367.50 369.24 369.21 368.50 368.43 371.88 375.13 378.95 379.46 378.72 377.60 375.68 373.31 370.50 367.07 363.19 358.58 354.79 351.51 348.95 346.29 344.13 342.81 342.64 343.65 345.46 346.34 347.90 350.12 353.54 357.60 360.41 366.56 373.68 380.79 388.78 401.21 408.46 409.84 406.28 401.22 396.18 388.64 378.02 370.63 364.57 362.57 358.74 356.05 352.48 357.51 361.25 363.72 367.54 371.81 371.05 369.55 370.16 370.35 367.11 362.08 356.84 350.01 343.22 337.92 333.40 325.08 320.51 318.87 318.15 320.05 326.44 334.19 337.95 342.31 353.03 361.52 358.98 348.25 342.97 340.99 339.90 338.70 336.43 333.09 330.11 328.31 325.33 321.64 315.80 309.71 305.16 294.65 288.68 288.68 290.19 291.40 292.81 294.62 297.48 305.05 313.07 318.31 319.11 318.80 318.55 317.75 314.77 314.10 314.88 313.75 312.08 311.22 310.27 310.24 311.36 310.19 307.99 307.54 307.27 307.10 305.73 302.46 297.10 294.97 292.62 290.54 288.60 286.81 285.34 284.27 283.64 283.02 282.62 282.29 282.08 281.86 281.65 281.56 282.63 285.31 288.42 290.12 292.06 294.33 295.37 295.46 294.79 293.53 293.05 292.92 292.78 292.73 292.33 291.74 290.50 288.79 287.41 286.36 285.50 285.44 286.71 288.88 291.91 294.83 295.89 293.76 291.48 289.46 288.17 287.23 287.03 286.81 286.37 285.42 285.09 285.17 285.60 286.35 286.82 286.69 286.32 286.78 287.72 290.11 291.72 290.76 289.99 289.44 288.63 287.95 287.78 287.46 287.11 285.69 284.68 283.98 283.59 284.90 286.39 288.27 289.10 288.71 288.74 290.16 291.24 290.95 290.24 290.11 289.67 290.33 291.29 291.60 289.85 283.21 281.14 281.33 281.08 280.88 283.05 282.83 282.98 283.88 285.06 286.63 287.47 285.69 284.09 283.23 282.62 282.94 284.29 286.48 288.93 290.35 291.15 290.79 290.94 290.59 289.94 289.12 287.88 287.12 286.79 286.88 286.49 283.98 280.27 276.23 273.23 270.09 268.14 267.96 267.65 267.23 266.81 266.83 266.93 266.85 266.90 266.82 267.17 267.53 268.27 269.99 272.13 273.90 276.33 275.27 274.64 274.45 274.09 273.51 272.50 269.94 267.71 265.85 266.30 266.07 265.66 265.52 266.61 268.30 269.99 273.50 276.60 273.44 271.19 272.35 273.33 272.36 267.48 260.03 246.45 229.81 210.22 184.50 163.47 157.79 163.36 183.19 200.50 212.63 218.11 224.62 225.76 224.78 227.12 233.16 239.07 234.35 229.87 226.24 222.00 219.40 225.23 232.30 236.28 234.91 231.57 234.50 238.95 237.17 230.17 218.12 214.17 207.58 205.50 207.51 208.14 209.85 222.57 228.69 227.02 226.91 230.98 234.58 241.41 245.91 244.38 238.16 228.16 206.70 192.07 171.69 153.32 143.00 143.78 142.71 134.72 126.35 125.65 127.74 116.67
316.72 313.97 312.26 310.88 308.72 305.76 302.44 301.87 305.67 311.97 319.51 327.51 333.91 337.42 342.81 350.27 356.83 362.64 362.71 359.86 359.69 364.13 367.65 371.71 377.97 377.63 376.44 374.12 371.85 368.29 364.85 359.68 353.53 349.40 346.46 344.38 342.70 341.32 342.45 343.00 344.70 346.36 348.60 352.96 356.09 358.45 361.64 364.69 368.95 376.80 384.22 391.26 399.12 404.44 406.30 403.93 398.79 392.00 381.65 373.00 366.37 360.51 358.42 356.74 352.11 353.26 359.17 360.41 361.39 366.94 371.23 368.48 365.57 363.52 361.47 358.53 354.58 350.46 344.34 339.77 334.06 327.75 322.32 320.66 318.97 318.46 321.56 329.94 335.29 337.26 338.03 344.86 353.48 351.48 345.59 342.20 340.71 339.91 339.54 339.50 337.48 335.61 333.09 328.15 324.60 319.52 313.53 308.95 301.03 291.94 287.53 287.50 289.35 290.92 291.21 293.01 298.38 306.42 313.90 317.12 317.19 316.30 315.53 314.29 313.50 313.14 312.39 310.89 309.96 308.98 308.83 309.28 308.31 307.36 307.41 307.51 308.66 309.23 305.78 301.37 297.34 294.03 291.19 289.57 287.91 286.54 285.64 284.96 284.67 284.40 283.93 283.46 283.19 283.00 283.67 286.00 288.97 291.60 293.12 294.85 295.74 294.99 294.40 293.85 293.47 293.44 293.64 293.91 294.24 294.59 294.35 292.65 290.83 289.41 288.39 287.69 287.76 288.93 290.75 291.83 292.91 292.80 292.03 291.10 289.82 288.47 287.56 287.32 287.46 288.13 287.65 287.36 287.28 287.76 288.63 289.18 289.10 288.41 288.37 288.91 290.88 293.19 292.85 292.46 291.66 291.33 290.97 290.74 289.65 288.30 285.73 283.21 281.72 281.13 281.59 282.84 284.48 285.70 285.33 286.08 288.16 289.54 290.34 291.01 291.81 291.92 292.45 292.02 291.14 284.35 280.99 280.94 281.24 281.21 281.41 283.42 283.82 283.66 284.59 285.87 287.61 288.95 288.00 286.16 285.08 285.25 286.54 288.36 290.08 290.53 290.46 290.35 290.25 290.79 291.36 291.61 292.05 292.28 292.08 291.62 291.23 289.54 286.93 284.10 280.47 276.36 273.43 271.60 270.52 269.17 267.92 267.16 267.06 267.11 266.95 266.94 266.85 267.52 268.04 269.35 271.35 272.21 272.96 274.41 275.14 274.89 273.91 272.04 269.05 266.20 263.80 262.68 262.61 262.99 263.16 261.84 261.59 262.46 262.99 263.93 265.97 269.89 269.72 270.79 274.22 275.90 274.28 271.77 270.60 262.31 245.46 226.38 203.79 178.56 160.55 154.50 160.76 181.41 198.18 204.62 211.09 215.73 219.45 226.30 232.63 233.68 227.73 221.87 217.29 215.06 216.88 225.93 230.94 232.10 228.26 231.46 236.43 238.30 233.48 225.45 215.54 209.06 202.36 202.99 206.42 207.16 212.82 226.41 230.91 229.22 228.58 232.39 236.04 244.93 252.52 250.07 246.97 240.42 217.44 201.77 181.07 157.07 149.68 145.46 144.29 143.73 141.83 136.25 127.94 116.72
318.39 319.57 317.35 314.94 311.96 308.16 303.99 301.46 303.19 307.97 314.18 321.07 327.85 333.52 335.10 341.25 346.49 350.59 353.78 353.65 353.34 355.31 360.80 367.92 376.68 375.10 373.70 371.87 368.51 364.33 361.65 354.68 349.07 344.91 343.05 341.78 340.90 341.91 343.49 345.08 346.36 351.50 355.90 359.37 362.26 367.39 369.38 370.80 372.57 378.26 387.03 392.64 397.87 401.50 400.93 399.08 392.64 385.42 374.28 366.07 361.70 356.73 355.05 351.69 350.22 354.97 359.14 360.96 365.78 371.90 371.90 368.42 364.96 360.88 357.45 354.68 349.60 344.23 342.23 338.78 331.94 322.77 320.57 319.13 318.71 318.89 321.46 328.02 332.77 333.96 334.96 335.93 339.42 341.33 342.08 340.61 340.41 340.64 341.83 343.39 344.50 344.71 339.85 331.43 325.99 321.53 316.75 312.49 305.67 298.64 290.42 286.67 286.59 288.57 290.06 291.97 295.37 302.18 307.99 311.41 313.86 314.23 313.39 313.55 313.58 312.14 311.59 311.30 310.50 308.35 307.77 308.00 306.48 305.41 305.39 305.91 308.23 311.02 312.20 305.21 300.45 296.17 292.11 290.49 288.88 287.63 287.10 287.60 287.12 286.40 285.85 285.52 285.51 286.09 287.67 289.67 291.85 293.17 293.68 295.09 295.84 295.27 294.91 294.82 294.70 294.69 294.85 295.26 295.51 295.67 294.58 293.31 291.86 290.65 289.50 289.05 288.68 289.18 289.87 290.67 291.50 291.85 291.77 291.37 290.43 288.98 287.93 287.61 287.88 289.11 288.49 289.24 289.24 289.39 289.89 290.11 289.94 289.18 288.89 289.25 290.65 292.85 293.19 292.84 293.63 293.75 292.32 290.83 287.76 284.91 282.98 280.84 278.88 278.18 278.22 279.05 280.53 281.97 281.69 282.71 284.82 286.61 288.21 290.66 292.74 292.80 292.81 291.84 288.93 279.80 280.04 280.39 280.75 281.09 281.36 282.11 284.33 285.17 286.55 287.96 288.73 290.07 289.97 288.78 287.96 288.04 289.34 290.29 290.28 290.29 290.28 290.44 290.75 291.97 294.48 295.52 296.51 296.56 295.84 294.53 293.49 291.64 289.34 285.99 282.90 278.83 276.26 274.19 272.60 270.32 268.68 267.73 267.40 267.53 267.48 267.39 266.74 268.08 268.82 269.58 270.26 270.53 271.13 272.14 274.35 272.21 268.78 266.65 264.91 263.45 261.92 260.36 259.00 257.63 257.03 256.85 256.69 257.39 256.74 256.60 256.26 255.59 253.88 251.19 249.88 252.25 256.50 262.53 268.95 269.68 259.26 239.66 224.34 199.68 175.32 154.20 150.79 158.29 176.69 192.04 202.02 206.16 213.24 222.37 228.23 226.38 219.35 213.00 210.93 212.05 217.03 224.65 227.63 225.02 226.89 234.39 238.00 236.35 228.86 219.95 210.79 200.05 198.78 201.29 205.58 205.32 216.57 230.25 232.19 235.34 238.18 238.12 239.57 246.70 255.12 255.51 255.47 245.04 228.00 208.04 191.09 162.56 152.15 146.26 144.69 144.06 140.13 132.62 127.02 117.11
329.34 324.98 322.87 320.43 316.77 312.26 307.28 302.81 301.65 304.29 308.96 314.80 321.26 327.29 332.11 334.09 337.56 340.08 343.03 345.14 346.95 351.70 356.83 364.84 370.65 370.79 369.89 367.48 364.21 360.69 356.23 349.63 345.80 342.50 340.44 340.06 341.12 342.20 344.43 348.48 352.65 359.11 364.88 370.66 372.39 372.42 372.52 372.85 374.51 378.35 387.06 391.23 395.05 397.18 395.06 393.71 387.69 377.72 366.53 360.16 355.01 353.15 350.02 348.02 351.28 357.71 361.35 368.16 376.80 378.11 372.93 368.48 364.44 359.82 356.04 351.58 344.87 342.20 341.30 335.12 326.74 320.75 319.99 318.85 319.93 319.85 320.55 322.66 327.38 330.05 332.72 334.50 334.79 335.09 335.80 337.48 339.46 342.58 346.31 350.02 353.51 354.77 344.56 335.14 328.35 323.07 319.13 315.36 308.99 302.66 295.48 289.37 286.31 285.91 288.55 292.45 295.63 299.87 304.49 307.60 309.99 311.73 312.03 312.89 313.03 312.53 311.97 311.63 309.40 307.72 306.78 306.54 304.91 304.53 304.55 304.79 306.23 310.89 315.79 311.22 302.84 298.00 293.98 291.75 290.26 288.71 288.19 290.50 291.19 289.60 288.99 288.76 288.66 289.49 291.06 292.11 293.06 294.10 294.71 296.28 297.33 296.85 296.59 296.76 297.03 297.42 297.34 296.97 295.25 293.04 291.87 290.98 289.95 289.42 289.41 288.44 288.44 289.22 289.98 290.85 291.55 292.05 292.46 292.74 291.98 290.91 289.23 288.34 288.44 289.61 291.28 291.39 291.59 291.70 291.83 291.66 291.38 290.24 289.40 289.46 290.83 293.52 294.09 293.57 293.31 293.19 291.42 288.39 285.00 282.03 279.71 277.81 275.76 274.77 274.61 275.21 276.75 277.38 278.01 279.77 282.47 284.39 285.97 288.38 290.38 291.49 291.43 290.01 283.19 278.66 279.12 279.68 280.18 280.66 281.01 281.49 282.95 284.90 286.86 288.29 289.07 290.61 291.73 291.25 289.95 289.76 290.03 290.14 290.07 290.11 290.46 291.27 293.03 295.89 298.12 298.91 299.20 298.59 297.08 295.66 294.71 292.85 289.40 285.07 282.51 279.54 277.48 275.35 273.04 271.15 269.50 268.10 267.69 267.71 267.87 267.60 265.86 266.66 267.83 268.25 268.40 268.42 269.18 269.84 268.89 266.93 265.86 265.17 264.06 262.48 259.45 256.23 254.60 254.14 253.56 251.94 250.69 250.62 251.11 250.42 248.47 246.51 244.66 242.32 239.94 240.20 243.48 248.52 253.89 258.66 262.16 250.75 233.36 217.36 197.68 169.07 153.36 146.97 151.27 171.03 189.40 201.40 206.23 215.45 221.30 216.71 210.30 206.98 207.26 207.64 211.92 216.68 216.85 221.41 229.75 235.56 237.22 231.52 222.79 213.83 203.60 195.19 194.98 198.70 199.53 206.00 219.72 229.23 231.01 239.25 246.39 242.84 242.33 249.52 254.78 256.29 259.46 253.20 232.79 212.36 190.27 165.91 155.73 147.78 145.35 144.40 143.01 139.19 137.59 122.75
333.27 325.70 323.97 324.09 322.28 317.69 312.41 307.06 302.90 302.03 304.48 308.94 314.61 320.74 326.14 329.16 332.07 332.56 334.79 338.60 341.28 346.77 353.79 359.87 363.98 366.19 365.48 363.45 360.36 355.79 351.15 346.92 343.08 339.86 339.29 340.20 341.51 344.33 349.12 355.62 362.14 369.93 375.80 377.04 372.93 371.50 371.24 371.95 373.28 376.11 382.72 388.28 391.35 392.78 389.41 387.83 381.82 370.08 361.51 354.47 351.90 348.41 344.89 346.17 353.10 358.46 366.08 376.83 383.37 378.85 372.66 368.28 363.77 359.15 353.50 346.16 342.28 340.12 338.15 329.91 323.20 320.37 319.57 320.16 322.59 321.40 320.73 321.76 324.37 328.50 331.01 333.03 334.73 334.78 335.04 336.55 339.26 341.51 343.81 346.87 351.65 357.99 348.85 338.79 332.36 325.48 321.26 317.94 311.31 304.83 298.98 292.82 286.76 285.22 286.94 295.12 296.72 298.23 300.94 304.60 307.21 309.44 310.28 310.64 311.17 310.66 310.31 309.00 307.45 306.49 305.95 305.42 304.53 304.32 304.56 304.90 305.29 310.09 319.41 316.39 307.08 300.90 297.45 294.86 292.46 290.25 288.60 290.70 293.02 291.94 291.29 290.89 290.66 291.06 292.66 294.00 294.87 295.92 296.79 298.53 299.76 299.67 299.66 299.69 300.05 300.21 299.06 295.34 291.24 289.54 289.03 289.20 287.94 288.22 288.70 288.30 288.81 289.61 290.41 291.25 292.14 293.09 294.27 295.46 295.08 292.95 290.68 289.79 289.76 291.06 293.28 293.92 294.18 294.43 294.25 293.17 292.10 290.75 289.77 290.02 294.03 296.28 295.19 293.30 291.78 290.83 289.59 286.23 282.75 279.45 276.61 274.40 272.56 271.22 270.90 271.45 272.41 274.11 276.67 279.91 282.99 285.19 286.18 287.25 288.55 289.84 289.95 287.36 280.16 277.55 278.21 278.89 279.55 280.18 280.70 281.17 281.73 282.66 284.76 288.26 289.55 291.25 292.86 292.87 291.49 290.67 290.27 290.17 290.04 290.69 292.35 294.73 296.90 299.22 301.44 300.66 299.90 298.66 297.28 295.74 293.11 289.33 286.42 283.15 280.07 277.45 275.78 274.24 273.00 271.49 270.16 269.07 268.18 267.72 267.94 267.11 264.66 263.80 264.66 266.14 266.72 266.34 266.05 265.28 265.70 265.80 265.17 264.31 262.54 259.72 255.31 252.20 251.32 250.45 249.76 248.51 248.39 248.80 249.74 249.12 246.00 242.61 239.55 235.62 232.32 231.62 233.04 235.07 238.69 244.06 249.70 254.33 243.20 228.87 215.62 195.39 173.93 153.80 143.89 151.17 171.79 188.36 196.63 202.98 209.50 205.65 202.53 202.25 199.96 198.23 199.78 206.16 214.30 223.04 229.41 234.76 232.92 224.13 213.72 206.46 196.33 190.24 191.03 193.33 196.79 209.14 218.54 220.89 228.16 239.31 245.59 244.66 243.50 251.59 254.54 256.65 261.49 250.54 229.86 210.57 184.71 170.11 158.35 148.69 145.77 144.51 143.65 142.67 137.77 122.34
337.65 336.04 324.19 324.04 324.09 324.08 319.00 313.45 307.77 303.18 301.82 304.03 308.54 313.93 319.57 324.37 326.30 326.81 329.84 332.84 337.27 341.83 350.24 356.57 361.04 362.08 361.30 358.75 354.97 350.68 346.47 342.85 340.26 339.24 339.70 340.92 344.43 350.77 356.48 364.51 372.95 374.73 380.11 378.39 370.21 367.93 367.28 368.50 369.86 372.12 374.52 379.72 385.57 387.05 382.75 380.64 374.12 363.49 355.50 351.74 349.14 344.19 341.72 347.51 354.37 361.95 373.50 385.06 387.46 379.56 372.24 366.47 362.48 358.67 350.69 343.51 341.16 338.16 335.14 327.08 322.84 320.32 319.83 321.51 322.95 321.74 321.60 322.04 324.84 328.44 330.27 331.60 334.15 335.22 335.25 336.74 338.88 340.27 340.21 341.60 343.79 349.18 352.64 342.07 335.71 328.68 323.42 320.41 313.92 308.32 303.18 292.28 286.04 284.14 285.38 289.58 294.35 297.85 300.58 302.79 304.70 306.92 308.21 308.46 307.45 305.61 304.76 304.82 304.79 304.60 304.88 305.24 304.42 303.82 304.28 303.51 303.88 310.53 322.09 318.10 310.51 304.51 301.67 298.76 295.06 290.78 288.98 288.92 291.22 293.24 292.62 292.24 292.14 292.71 294.82 296.51 297.48 298.47 299.40 300.38 301.43 302.00 302.60 302.86 302.94 301.43 297.34 291.58 288.45 286.73 285.80 285.74 286.73 287.13 287.94 289.00 289.54 290.38 291.47 292.56 294.07 296.13 297.66 297.96 296.21 294.00 292.51 291.99 292.68 294.00 296.26 297.25 297.34 297.21 295.96 293.94 292.38 291.89 291.98 293.35 296.28 296.72 295.14 293.20 292.14 289.59 287.33 284.74 280.68 277.26 274.03 271.65 269.41 267.35 266.96 267.44 268.73 272.02 276.76 280.46 283.74 285.85 287.29 287.00 288.01 289.29 289.06 285.61 279.70 276.78 277.41 278.17 278.98 279.65 280.31 280.94 281.57 282.04 282.97 286.68 290.16 291.49 292.87 293.28 292.61 291.49 290.51 290.30 290.72 292.54 295.39 297.97 299.49 300.90 301.64 300.61 299.05 297.24 295.36 291.85 288.40 285.44 283.87 282.21 279.45 278.04 276.01 274.45 272.87 271.57 270.71 269.56 268.13 267.05 267.16 266.02 264.12 262.45 260.82 260.51 263.12 259.64 258.90 259.22 263.44 262.56 260.02 259.05 256.12 253.43 250.68 248.70 247.98 247.25 247.14 247.79 248.01 248.45 250.02 248.98 243.67 239.06 235.11 230.48 227.68 225.89 225.78 226.56 227.87 231.23 237.39 242.23 247.99 238.31 226.72 212.95 193.41 171.28 144.84 141.90 150.38 166.67 184.66 191.06 194.30 195.30 194.31 192.25 190.60 188.55 188.29 200.35 213.32 219.45 226.66 230.26 225.85 213.38 207.19 199.83 189.09 186.46 186.82 188.88 199.21 208.86 210.49 213.87 226.27 232.46 236.43 237.50 239.62 249.23 252.89 258.35 259.49 244.40 221.81 201.85 179.67 172.31 161.65 149.95 145.56 144.27 143.25 141.98 134.60 120.36
346.59 344.01 333.02 326.79 324.13 324.07 323.72 320.92 315.68 309.35 303.98 301.87 304.09 308.17 313.11 318.19 321.56 322.44 324.70 331.18 334.20 338.26 345.92 351.37 353.83 354.68 353.99 351.83 348.53 344.81 341.82 340.08 338.95 339.13 340.69 343.59 350.58 358.44 363.88 369.59 376.10 381.62 379.04 372.44 365.76 363.70 362.96 363.63 364.83 365.95 367.81 370.57 374.99 379.75 377.88 374.16 366.98 356.03 350.25 349.41 344.94 341.17 341.25 349.53 356.25 367.75 386.00 395.13 390.45 380.04 372.52 365.52 360.23 354.52 344.54 340.33 338.53 334.69 329.58 325.19 321.98 319.80 320.02 321.75 322.54 322.08 322.58 325.60 329.62 330.48 331.21 332.17 336.23 338.38 338.14 337.63 337.71 336.53 336.63 338.86 340.35 341.33 347.09 345.06 337.86 332.89 327.25 322.37 318.29 312.97 305.53 296.41 286.90 284.16 284.05 285.91 287.90 292.48 297.90 300.19 302.56 305.55 306.80 305.38 304.56 303.33 302.01 301.61 301.83 303.40 305.24 305.91 304.17 302.20 302.23 301.96 303.07 310.90 317.50 316.06 311.50 306.06 302.40 298.51 294.45 290.50 288.03 288.96 290.17 291.79 293.99 294.16 294.29 294.88 296.87 298.92 299.40 299.90 300.28 300.92 300.85 301.05 302.45 302.52 301.52 299.23 293.65 288.20 284.31 282.91 282.61 283.71 285.74 287.31 288.32 289.98 290.79 292.00 293.69 295.77 298.15 300.21 300.79 298.91 296.16 294.73 294.12 294.75 295.84 297.68 299.16 299.24 298.18 296.64 294.42 292.33 291.67 291.67 291.91 292.53 293.77 294.06 293.88 295.09 292.46 289.13 286.32 283.41 279.39 275.76 272.40 269.71 267.08 265.39 264.62 265.25 268.42 273.10 277.05 281.32 284.34 286.45 287.32 287.67 288.77 290.09 290.02 287.36 282.25 279.12 277.97 278.06 278.65 279.11 279.95 280.53 281.34 281.95 282.65 284.86 288.27 290.72 292.10 292.74 292.31 291.24 291.05 291.10 292.24 294.30 296.81 298.51 299.22 299.59 299.80 298.95 296.23 292.22 289.02 286.84 285.28 284.39 283.83 284.95 286.91 284.81 281.05 276.20 273.66 271.91 270.38 269.50 268.54 267.36 266.51 265.69 265.39 263.73 261.16 259.46 258.35 256.66 254.93 254.64 254.38 255.07 254.60 253.11 251.06 249.46 247.46 246.15 245.37 245.05 245.66 245.90 246.48 247.16 247.24 244.81 239.44 235.27 229.94 225.38 221.27 217.17 215.75 216.24 219.92 223.53 226.67 231.93 237.39 244.40 238.17 221.15 206.81 185.71 164.39 143.68 139.75 147.82 164.97 177.84 183.86 186.44 187.05 186.91 184.38 179.84 180.02 188.09 202.03 212.79 218.49 222.72 215.55 205.25 200.25 190.39 179.26 176.51 179.59 189.18 202.04 207.04 207.60 213.65 212.42 214.87 220.08 227.72 236.06 245.97 254.69 258.66 251.61 235.62 213.28 190.71 174.04 170.05 157.57 146.67 144.81 144.26 143.50 139.94 133.37 117.82
361.15 360.14 349.89 339.86 332.58 324.67 324.00 323.94 322.42 318.19 311.07 304.56 302.20 303.94 307.68 312.17 316.76 320.53 323.56 328.92 332.44 336.20 340.97 344.50 346.75 347.64 347.25 345.68 343.26 340.49 338.80 337.55 338.00 340.07 344.65 350.65 357.34 363.93 369.62 375.00 386.41 384.74 374.03 364.94 360.57 359.01 358.29 358.17 358.32 359.39 360.86 363.46 367.56 370.90 371.55 366.17 356.55 350.47 345.23 343.26 340.59 340.64 344.72 352.71 360.70 375.52 390.54 399.58 392.06 380.82 372.22 364.61 358.55 349.48 340.96 337.44 334.29 331.62 326.32 322.79 320.93 319.95 320.22 321.68 322.72 323.85 326.88 330.10 331.88 332.96 333.46 333.99 336.19 337.25 337.83 337.91 337.01 334.11 332.23 333.36 334.78 338.01 342.47 346.14 339.91 335.43 331.27 326.84 322.54 316.99 309.25 301.80 295.31 288.50 284.01 284.42 284.86 286.52 291.53 298.15 301.64 305.25 305.25 302.51 300.95 300.16 299.75 299.59 299.87 302.47 304.27 304.33 300.51 297.54 298.57 300.27 302.08 306.35 313.82 314.86 310.14 305.56 301.50 297.94 293.79 290.43 287.60 288.71 290.85 292.18 294.57 296.10 295.98 297.01 297.61 297.41 296.48 297.79 298.40 298.38 297.90 297.84 299.36 298.79 296.52 293.45 288.64 283.78 281.92 280.85 280.91 281.94 284.40 287.31 288.86 291.18 293.14 294.80 297.13 299.42 301.56 302.57 301.99 299.64 297.57 296.73 296.95 297.56 297.65 297.58 297.19 297.21 295.69 293.77 291.91 290.98 290.61 290.80 291.06 290.95 290.98 291.73 292.87 294.06 292.99 290.39 287.66 284.31 279.62 275.20 271.75 268.75 266.37 264.98 264.34 265.22 267.77 271.75 275.87 279.55 283.05 285.67 287.23 288.20 290.10 291.42 291.29 290.21 286.58 284.39 282.31 280.52 279.30 279.04 279.54 280.36 281.12 281.79 282.43 284.51 287.57 290.51 291.77 291.54 291.71 291.77 291.40 291.84 293.59 294.38 295.43 296.93 297.76 298.27 297.46 294.04 290.84 287.57 286.50 285.37 285.07 284.14 284.68 285.49 286.24 288.16 285.08 281.25 275.44 272.24 271.20 270.27 269.35 268.40 267.65 266.52 265.93 264.67 262.69 260.75 259.36 258.31 255.87 250.25 248.20 248.10 250.03 248.65 246.21 244.73 243.15 242.39 242.10 242.83 243.24 243.60 243.79 244.24 242.85 240.41 235.66 229.46 224.53 220.13 216.10 212.87 211.61 212.04 213.54 216.95 219.40 222.62 227.08 235.16 241.72 233.19 215.88 201.35 182.79 159.10 141.22 136.56 142.72 156.38 171.39 180.07 182.65 183.02 179.77 172.44 172.62 177.54 189.24 199.88 204.78 206.38 202.05 193.27 190.20 177.65 168.17 167.98 177.76 191.94 200.38 204.33 208.37 206.21 198.26 200.75 210.16 220.79 230.59 243.60 253.91 254.09 243.01 225.73 208.93 179.61 169.11 165.24 151.12 145.17 144.33 142.75 139.61 136.40 129.80 116.02
371.11 374.05 364.32 354.66 345.09 339.45 333.63 325.10 323.79 323.61 320.43 312.16 304.78 302.13 303.69 307.11 311.17 315.39 319.54 323.66 327.66 331.52 335.08 338.14 340.36 341.48 341.52 340.67 339.88 336.47 334.81 336.11 339.47 344.34 350.92 357.21 361.88 368.73 371.87 378.13 382.73 375.46 366.53 359.98 355.99 354.53 353.39 352.63 352.63 353.06 354.56 356.92 359.91 362.58 361.33 352.90 345.90 344.14 340.70 338.82 339.37 344.37 350.95 355.45 363.91 377.71 390.84 396.97 393.56 381.20 371.56 363.59 357.87 347.55 339.93 335.58 332.17 330.36 326.08 323.21 320.99 320.28 321.26 322.68 325.37 327.89 330.93 333.41 334.81 336.86 337.92 337.25 337.07 336.58 335.90 335.47 334.24 331.71 328.98 328.71 329.91 333.85 338.73 341.97 337.97 335.17 331.99 329.65 327.06 321.94 315.15 309.77 305.34 300.89 288.72 283.89 283.75 283.80 285.74 294.36 301.48 305.06 301.99 298.93 297.94 297.61 297.33 296.94 296.55 298.31 300.37 299.06 296.14 295.60 296.76 299.07 300.63 301.93 305.61 312.84 309.25 304.24 300.39 297.44 293.44 291.16 287.25 285.99 290.49 293.53 294.97 296.30 295.32 295.71 296.49 295.55 293.12 291.66 294.57 294.57 294.00 293.93 294.09 292.57 290.34 286.60 282.07 280.49 281.64 279.18 279.62 281.63 283.94 287.82 289.97 292.94 295.91 297.96 300.22 301.91 302.95 303.93 303.58 301.12 298.82 297.48 297.20 296.79 295.90 294.59 293.82 293.75 293.31 291.96 290.41 289.77 289.54 289.25 289.10 289.50 289.84 291.40 293.65 295.70 295.62 294.03 291.43 287.51 281.76 276.09 272.44 269.48 266.92 264.95 263.80 264.35 267.27 269.63 273.46 277.00 280.28 283.30 285.95 288.40 290.74 292.67 293.02 292.97 292.31 290.01 287.89 285.29 280.73 279.92 279.18 280.05 280.89 281.63 282.34 284.51 288.27 289.34 290.38 290.96 291.28 292.42 291.96 292.15 292.65 293.23 294.16 295.63 296.56 295.56 291.34 288.90 286.33 285.50 285.24 285.08 285.05 284.93 285.07 285.12 285.45 287.29 286.17 284.91 276.68 273.63 272.08 270.83 269.86 269.31 268.50 265.27 264.62 264.19 263.53 263.34 263.45 264.34 262.57 256.98 250.49 244.12 242.22 239.12 237.70 236.79 236.88 237.25 237.40 237.48 239.49 240.02 240.56 240.40 237.99 232.31 229.36 225.55 221.72 217.75 214.79 211.80 210.03 209.20 208.09 208.56 208.78 209.66 210.71 216.49 228.33 238.59 224.67 210.20 200.18 180.37 159.45 139.01 134.80 134.90 145.27 162.79 174.45 177.27 173.97 166.17 155.97 165.21 173.95 182.87 189.27 192.95 182.58 175.92 170.32 166.53 163.30 167.32 180.60 193.83 199.23 201.54 210.10 200.61 190.91 193.37 200.14 211.74 223.35 238.92 245.32 244.26 233.54 221.91 203.39 172.16 165.94 153.46 145.17 144.44 143.86 141.39 137.73 130.47 123.21 113.03
377.38 380.07 375.93 368.81 361.08 352.80 349.60 345.20 334.61 327.17 324.21 320.77 311.92 304.74 302.23 303.67 306.65 310.24 314.08 318.04 321.99 325.80 329.33 332.44 334.91 336.53 337.23 336.85 336.02 333.99 333.25 337.04 341.37 345.82 351.66 357.41 361.58 366.38 368.37 371.41 370.04 363.74 359.24 354.26 351.06 348.73 347.07 346.16 345.99 346.61 347.94 349.65 352.06 353.16 348.88 342.06 338.73 337.84 337.46 337.94 342.93 349.36 352.76 359.83 368.33 380.60 390.41 391.04 388.82 381.92 372.40 363.51 358.43 349.11 340.86 337.28 331.28 328.75 325.18 322.61 320.80 320.31 322.17 327.70 330.56 331.65 335.27 339.98 344.38 341.92 341.03 339.59 337.99 336.63 334.97 333.25 330.40 326.60 325.05 327.35 331.03 332.12 333.16 335.87 336.68 333.96 331.51 329.38 328.47 326.84 321.00 313.67 310.49 306.76 301.75 292.57 286.50 283.70 283.73 286.17 296.68 302.10 299.62 296.75 296.36 296.19 295.41 293.78 293.05 294.37 294.82 295.24 294.53 294.44 294.96 296.94 299.97 300.94 302.49 306.54 307.73 303.09 299.96 297.16 293.87 291.69 288.16 285.19 289.25 292.17 292.95 293.53 291.37 288.40 288.82 289.57 285.49 285.69 284.51 284.59 284.08 283.41 285.08 284.26 281.63 279.33 278.13 278.05 281.33 278.19 279.79 281.79 284.35 289.17 292.42 295.57 297.64 299.74 301.57 302.86 303.74 303.07 300.41 297.94 296.32 295.98 295.15 293.81 292.96 292.37 291.43 291.05 290.46 289.52 288.52 287.83 287.50 287.80 288.32 289.56 290.86 294.42 297.03 298.32 299.23 298.88 296.50 290.54 284.00 277.96 273.70 270.31 267.78 265.04 262.83 261.08 263.22 266.65 270.93 274.70 278.21 281.57 284.73 287.93 291.09 294.34 296.19 297.06 297.46 296.74 293.94 291.09 287.99 282.58 280.34 279.76 280.69 281.46 282.33 284.04 285.77 287.35 288.15 289.30 290.21 292.27 291.97 291.85 292.16 292.47 293.54 293.87 292.85 289.55 287.54 286.16 285.36 285.22 285.16 285.10 285.17 285.14 285.06 285.15 285.17 285.50 286.34 286.23 279.73 273.85 272.32 271.11 269.51 267.48 264.27 263.41 263.77 264.59 265.19 266.15 267.09 268.40 265.33 259.95 254.92 246.43 240.27 236.84 234.77 233.13 232.86 233.53 233.53 233.63 235.15 236.00 235.35 233.29 229.96 227.46 225.09 223.57 220.51 217.18 214.85 211.94 208.74 204.10 200.21 197.44 197.28 197.67 200.56 204.81 213.57 225.54 229.37 217.24 207.95 197.31 182.89 164.81 145.42 134.04 129.94 136.97 148.33 154.75 158.96 149.47 141.36 149.98 158.58 171.34 179.46 177.66 170.64 165.39 163.17 161.02 161.05 168.86 181.72 191.25 193.30 202.76 213.50 197.61 186.48 185.46 193.79 202.09 215.83 229.04 238.48 239.60 222.83 207.00 181.18 159.65 153.94 144.48 141.82 143.43 144.26 144.09 139.76 136.40 129.06 119.07
386.29 388.10 383.42 377.01 371.49 365.26 362.65 362.06 354.83 341.58 331.76 326.32 320.03 311.49 305.30 303.25 303.69 305.92 309.09 312.75 316.56 320.34 323.93 327.25 330.16 332.59 334.38 333.90 332.35 331.95 333.39 335.96 338.10 341.30 345.93 350.46 355.52 361.67 362.64 362.92 362.30 357.98 353.68 349.13 343.82 340.88 339.51 338.17 337.86 338.71 339.82 340.62 341.93 342.28 339.55 336.71 335.80 335.99 336.53 339.88 347.22 350.79 356.89 365.29 372.61 378.79 381.84 382.39 381.66 378.04 373.00 363.85 357.77 349.95 340.60 335.95 331.32 327.13 324.29 321.51 320.40 320.57 326.40 331.34 333.05 335.79 342.99 352.27 354.24 347.70 343.96 341.33 338.58 336.63 334.16 331.41 326.14 320.96 320.22 324.68 329.05 331.49 331.82 333.44 334.18 332.18 330.69 329.70 328.85 327.83 324.16 316.99 312.76 309.60 306.00 301.13 294.44 285.11 283.78 284.00 288.75 299.18 297.29 295.28 294.80 294.02 292.59 290.23 289.82 290.77 291.54 292.59 293.10 293.14 293.08 293.06 295.64 299.00 300.78 302.72 303.92 301.69 299.60 296.94 293.78 291.44 288.52 283.27 285.41 289.24 288.86 287.85 286.13 283.46 281.55 280.23 279.61 277.91 276.71 276.21 274.81 275.24 276.20 276.47 277.03 277.08 276.57 276.44 277.98 277.82 280.39 283.25 285.45 289.93 294.66 296.82 298.04 299.79 300.51 299.76 298.30 297.17 295.92 295.15 294.34 293.66 292.97 292.47 292.00 291.16 289.86 288.27 287.46 286.84 286.58 286.68 287.00 287.91 289.40 292.54 296.62 299.15 301.77 303.11 302.66 300.91 298.26 289.73 282.35 277.48 273.40 270.12 267.54 264.01 259.25 254.22 258.18 264.41 269.46 273.41 277.34 281.61 285.76 289.38 292.88 296.63 300.05 302.61 304.62 304.49 300.53 296.37 292.63 285.52 282.27 280.17 280.48 281.32 282.09 282.75 283.59 284.43 285.13 286.41 287.77 290.82 291.76 291.89 292.15 291.88 291.38 289.95 288.41 287.19 286.42 285.71 285.38 285.22 285.18 285.24 285.24 285.15 285.19 285.21 285.21 285.24 285.68 287.01 280.96 275.11 273.04 271.26 268.74 265.05 263.04 262.89 263.76 265.59 267.45 269.10 270.07 269.81 265.31 260.29 254.94 249.23 242.29 236.37 233.94 231.94 230.85 230.00 229.14 229.10 230.61 230.47 228.45 226.09 223.62 221.93 221.12 220.48 218.36 215.50 213.43 210.78 206.07 201.84 198.24 194.91 193.67 192.91 194.51 197.84 202.81 209.73 218.37 218.63 211.74 207.12 197.14 184.62 169.56 149.71 135.28 127.73 127.81 129.78 132.68 130.44 127.27 129.52 138.54 152.98 165.45 165.45 164.56 162.83 160.91 159.34 161.17 171.00 179.85 184.75 190.42 204.99 209.84 193.91 180.79 176.45 181.95 195.04 209.70 221.81 234.35 229.46 210.90 190.02 166.59 151.35 144.73 138.88 137.46 142.27 144.63 143.38 140.07 134.38 127.28 118.57
396.73 394.92 390.68 384.33 377.79 372.69 370.25 367.54 363.87 356.44 343.82 333.35 327.26 319.66 312.63 307.27 303.43 302.73 304.90 308.00 311.50 315.17 318.84 322.39 325.77 328.98 331.35 332.17 331.31 331.46 332.28 332.06 332.96 334.61 336.90 343.49 350.11 356.08 358.00 358.18 357.04 353.75 348.48 340.47 335.14 331.93 330.04 330.85 331.54 332.65 333.90 334.88 335.41 335.36 334.79 334.36 334.42 336.14 339.32 345.45 349.53 353.10 363.31 372.83 376.17 377.00 377.46 376.70 375.93 374.11 371.10 363.59 356.77 350.20 341.08 334.56 329.22 325.18 323.12 321.58 320.92 321.21 328.51 331.41 333.72 340.06 351.28 359.81 357.32 350.61 346.19 343.05 339.27 336.43 332.81 327.91 324.14 320.78 320.40 322.85 326.60 330.12 331.27 332.48 333.64 333.05 331.50 330.23 328.62 327.95 326.71 318.74 313.68 309.94 306.55 302.52 296.70 288.21 283.74 283.75 284.96 294.32 294.10 293.31 291.48 290.35 288.93 286.15 285.94 288.10 289.54 290.42 291.06 292.01 292.76 291.47 291.13 294.17 297.57 299.85 300.67 300.40 298.73 295.58 292.84 291.11 289.39 283.27 280.69 283.02 281.79 281.01 280.26 279.14 278.05 276.40 274.01 271.91 270.41 269.79 269.86 270.31 271.96 274.05 275.19 275.67 275.32 275.56 276.52 278.01 280.65 284.24 286.86 289.37 294.05 296.88 297.72 298.32 295.34 293.75 292.93 292.71 292.42 292.38 292.13 292.13 292.16 291.95 290.89 289.42 287.77 286.67 285.41 285.16 285.29 286.39 288.19 290.90 294.41 298.06 301.36 303.90 306.03 306.04 302.03 297.73 293.28 286.77 281.50 277.59 273.82 270.21 266.89 262.54 256.61 252.52 256.65 263.22 269.15 273.67 278.49 283.69 288.14 292.20 296.25 300.52 304.77 308.21 310.20 310.26 306.80 301.64 296.94 289.98 284.92 282.85 280.53 281.13 281.94 282.58 282.89 283.08 283.78 285.34 286.52 288.40 291.58 291.71 291.33 290.27 289.27 288.55 287.76 287.22 286.51 286.02 285.71 285.46 285.30 285.26 285.27 285.32 285.32 285.28 285.24 285.27 285.53 286.37 281.54 276.71 274.38 271.44 268.92 264.59 262.76 262.64 263.95 267.59 269.77 269.80 268.33 268.69 266.09 260.82 254.21 248.02 244.24 237.80 234.29 231.24 229.18 227.80 227.01 226.06 224.48 222.79 225.13 223.24 221.27 219.37 218.08 217.53 216.76 215.12 212.90 210.07 205.77 201.87 198.19 193.76 191.30 189.05 189.32 191.77 194.92 199.54 205.05 208.32 208.20 207.88 206.40 196.76 186.15 171.89 156.69 143.13 132.16 125.00 122.81 121.82 120.75 119.02 119.93 137.10 152.56 159.17 158.44 158.33 158.83 158.68 160.52 168.23 174.10 179.01 191.66 207.31 200.18 189.10 173.16 167.02 173.13 189.23 203.59 218.98 230.28 214.17 196.84 170.74 153.72 145.58 140.34 134.40 133.12 136.81 135.96 135.28 131.06 124.23 113.90 106.01
408.67 403.13 396.83 389.94 382.00 375.42 372.37 369.27 363.58 359.66 350.64 337.57 332.49 327.24 320.84 314.16 307.88 303.39 302.82 304.47 307.13 310.46 314.07 317.74 321.41 324.96 328.14 329.09 328.71 330.76 331.32 329.76 328.61 330.44 332.67 336.60 343.81 349.18 352.81 352.65 352.67 347.49 338.88 331.27 324.78 321.46 324.15 326.28 327.81 329.62 331.71 333.31 334.31 334.39 334.41 334.58 335.45 339.05 344.04 349.17 351.78 359.96 370.32 376.43 375.55 374.32 373.93 373.70 371.53 370.47 368.91 361.55 354.66 347.00 338.47 333.00 327.24 324.14 322.82 321.80 321.94 322.58 327.96 333.05 337.33 348.57 360.76 361.45 357.48 351.33 347.72 344.41 339.41 335.88 329.50 325.48 324.07 322.38 322.24 323.55 325.87 328.21 329.88 331.19 332.41 332.78 332.28 330.99 328.86 327.94 327.61 320.69 316.07 312.10 308.36 301.56 292.98 287.24 284.46 283.70 284.18 290.33 291.29 289.90 287.88 285.40 283.00 282.92 284.12 285.97 287.56 288.47 289.74 291.56 292.71 291.87 289.67 290.71 294.88 298.45 299.44 298.36 296.70 294.33 292.18 290.53 289.19 283.60 278.71 278.42 277.84 277.77 277.64 276.58 275.60 274.01 272.57 270.58 269.08 268.23 268.46 269.00 270.64 272.77 273.95 274.33 273.95 275.14 276.41 277.78 280.10 283.61 286.61 288.55 289.47 289.77 288.77 291.19 291.63 290.30 289.86 290.08 290.66 291.17 291.71 292.06 291.76 290.72 289.15 287.31 285.99 285.26 284.99 284.75 285.19 287.04 292.41 296.64 299.84 303.07 305.40 306.09 305.34 301.78 298.43 294.81 291.09 286.41 282.36 278.60 275.03 271.00 266.13 261.56 257.48 255.22 258.91 264.37 270.18 275.58 280.59 285.75 291.02 295.83 300.53 305.42 309.18 311.07 311.27 311.07 310.02 306.32 301.23 292.43 287.12 282.99 280.56 280.98 281.85 282.60 282.97 282.97 283.15 284.43 286.19 288.39 291.43 291.22 291.02 290.27 289.62 289.07 288.94 288.68 287.86 286.94 285.99 285.44 285.31 285.32 285.30 285.35 285.32 285.31 285.32 285.35 285.60 285.92 282.53 279.98 279.10 277.92 273.59 267.26 262.82 262.26 262.97 265.92 267.45 267.13 265.75 265.78 265.97 261.33 253.89 246.90 243.98 240.11 235.61 231.71 228.75 226.75 224.67 223.07 221.10 219.71 221.42 221.43 220.15 218.09 215.87 214.91 214.78 213.95 212.17 209.58 205.76 201.17 195.54 191.13 187.20 184.75 185.34 186.57 189.24 193.23 198.94 201.55 201.49 202.62 205.53 202.91 196.00 184.15 174.38 169.13 160.32 151.81 145.24 141.72 135.47 124.58 112.09 117.19 132.01 142.82 152.08 154.89 155.74 157.35 157.78 163.36 167.55 178.51 194.46 192.49 183.67 176.59 162.59 158.87 163.92 179.57 197.63 215.44 215.59 194.76 175.20 152.88 146.39 143.47 138.79 132.37 127.95 126.13 123.68 121.27 119.53 114.77 107.44 102.19
411.59 409.77 403.06 391.88 382.17 374.85 369.11 364.46 359.61 355.01 347.68 340.45 335.84 331.83 328.36 321.92 314.66 308.32 304.36 303.27 304.03 306.47 309.71 313.31 317.09 320.85 324.26 325.87 326.31 327.56 327.85 327.01 325.97 325.84 326.79 330.10 334.62 338.91 340.59 340.75 342.86 335.52 326.60 319.46 317.26 316.49 317.60 322.46 324.92 327.60 330.94 333.41 335.03 335.63 336.46 337.56 339.51 343.16 347.54 349.80 355.03 364.59 373.05 371.80 369.52 368.13 367.74 367.28 366.37 366.08 362.65 355.95 347.91 341.56 335.33 330.10 325.78 323.69 322.47 321.78 322.66 324.36 328.63 335.93 339.20 350.35 362.92 361.08 357.82 352.48 348.73 344.16 337.92 334.58 329.01 325.59 324.49 323.82 323.75 324.35 325.40 326.49 327.53 328.34 331.47 332.47 332.05 331.20 329.02 327.83 327.00 322.90 317.90 314.10 310.87 303.11 294.52 290.83 285.60 283.69 282.47 283.85 284.71 283.88 281.88 280.44 280.05 279.96 281.09 282.62 284.39 284.95 285.11 285.51 286.91 289.38 288.66 288.30 291.60 297.07 298.43 296.14 294.10 291.00 289.75 289.08 287.98 283.98 277.33 276.06 276.02 275.98 275.87 275.86 275.58 275.04 273.96 271.27 268.24 267.35 267.28 268.01 269.73 271.37 272.70 272.93 272.51 274.36 276.10 277.68 279.39 281.07 282.78 283.46 280.53 280.65 281.02 282.70 287.41 287.47 287.62 289.34 290.00 290.45 291.47 291.96 290.96 289.22 287.37 285.88 285.35 285.23 285.01 285.06 287.11 291.11 296.40 300.72 303.63 305.94 305.12 302.25 299.55 296.76 294.78 292.56 289.92 286.67 283.21 279.32 275.58 271.12 266.29 262.10 259.24 258.50 260.43 266.02 271.28 276.29 282.10 287.62 293.96 299.52 304.36 307.64 308.64 308.89 309.68 309.87 308.98 304.70 299.65 290.20 285.60 280.94 279.98 280.81 281.71 282.48 282.91 282.96 283.03 284.24 286.55 289.24 291.72 291.60 292.38 293.27 293.37 292.44 291.72 290.91 289.44 287.38 285.77 285.40 285.39 285.31 285.38 285.39 285.36 285.34 285.37 285.42 286.32 287.66 287.20 288.63 289.01 286.42 280.20 273.07 264.02 261.42 260.17 261.06 262.96 264.51 263.66 263.44 264.20 262.06 254.73 247.57 243.95 241.98 238.99 234.50 231.13 228.69 226.37 225.06 222.38 217.39 217.45 217.70 216.49 214.81 213.90 213.09 211.79 210.23 207.84 203.81 199.38 194.58 190.52 187.00 183.22 181.85 182.00 182.69 185.17 189.93 193.06 192.19 189.96 192.05 194.19 196.14 193.92 184.75 179.18 176.53 173.75 170.61 166.75 164.36 157.00 141.68 118.45 108.02 109.67 117.19 128.19 134.59 143.18 155.02 155.58 157.38 164.93 174.10 175.69 170.79 169.31 157.39 152.70 149.87 155.53 173.96 193.20 200.00 188.22 175.38 158.07 147.22 144.36 143.18 140.27 135.24 128.83 123.43 121.32 119.18 115.41 109.78 107.21 108.91
414.59 410.22 402.78 390.68 380.33 373.38 367.39 362.55 358.60 353.08 347.03 342.89 337.77 334.19 331.58 328.00 321.67 315.02 309.56 305.55 303.16 303.69 306.01 309.21 312.92 316.87 320.72 323.80 324.10 324.10 324.24 324.02 324.04 324.58 325.09 325.78 326.29 326.85 328.13 329.75 331.08 327.29 318.81 312.83 311.54 311.91 315.01 320.14 324.29 328.23 332.23 335.23 337.18 338.34 339.53 341.15 343.58 346.94 349.28 351.29 359.21 369.74 369.65 364.62 361.17 359.40 358.58 359.12 360.22 355.95 354.15 350.87 344.00 336.38 331.88 326.53 324.51 322.90 321.81 321.74 322.88 325.43 332.30 337.41 339.90 351.93 362.58 361.09 358.82 353.66 348.56 343.53 337.66 335.16 329.94 326.15 325.43 325.16 324.98 325.07 325.68 326.23 326.63 327.06 329.27 331.72 331.95 329.47 328.05 327.64 326.68 324.03 320.57 316.42 313.93 308.14 301.53 300.31 289.65 284.12 280.58 280.83 279.85 279.08 278.42 277.83 277.30 277.37 277.47 279.35 280.72 282.19 281.00 280.17 280.85 284.08 286.46 285.54 288.12 293.72 295.32 291.43 287.92 284.87 284.70 285.04 285.94 283.06 275.71 273.78 274.04 274.56 275.69 276.56 277.14 278.95 278.64 273.55 268.06 266.69 266.20 266.80 268.17 269.64 270.25 270.54 271.01 272.63 275.04 276.50 276.69 275.90 273.40 272.52 270.39 270.19 272.29 273.91 277.27 280.86 284.89 287.32 287.65 288.11 289.58 290.69 290.04 287.91 286.19 285.40 285.29 285.30 285.65 286.90 290.85 294.63 298.81 301.40 301.40 302.45 299.21 297.04 295.07 293.75 292.57 291.05 289.00 286.41 283.44 279.88 276.05 271.97 266.92 262.80 260.80 260.60 262.64 266.47 272.03 277.94 284.29 289.99 296.31 300.94 303.35 305.18 306.51 307.24 307.91 307.24 303.98 298.08 293.74 286.11 282.30 278.86 279.74 280.67 281.45 282.09 282.55 282.74 282.93 284.57 287.98 290.83 292.91 294.79 296.51 297.23 295.65 293.66 292.55 291.30 289.53 287.37 286.61 286.18 285.63 285.49 285.39 285.40 285.38 285.37 285.48 285.81 291.15 297.12 298.86 298.99 296.75 291.77 285.26 277.61 267.39 261.26 258.13 257.82 258.96 261.51 261.97 261.18 259.54 257.97 255.97 249.79 244.53 243.36 243.13 240.36 237.73 234.73 231.34 229.73 226.38 217.89 213.38 211.61 209.21 208.37 212.13 209.09 205.54 202.43 199.19 195.59 191.81 188.54 185.57 182.61 180.58 178.70 178.84 179.45 181.65 186.90 190.03 185.79 182.06 181.03 181.29 183.46 185.22 180.76 178.72 177.92 176.10 173.92 172.75 170.93 168.52 161.41 140.61 120.99 106.78 105.43 106.98 113.44 131.18 144.01 147.20 151.91 156.68 157.71 156.18 156.10 152.63 149.13 141.63 141.66 151.02 166.35 176.20 173.49 165.67 154.96 147.58 145.20 144.06 143.92 143.73 141.90 134.96 126.40 122.66 118.04 114.04 111.91 118.84 120.78
412.51 405.32 398.75 388.87 379.49 373.41 367.60 362.53 358.43 352.91 348.40 344.62 340.74 336.22 333.07 329.83 326.94 321.76 315.91 310.46 305.84 303.21 303.59 305.76 308.99 312.85 316.86 320.26 320.90 320.88 320.47 320.02 319.80 319.95 320.51 321.27 322.46 322.81 322.41 322.11 320.58 315.12 309.37 305.05 306.13 309.28 313.96 320.10 325.96 330.67 335.42 338.40 340.25 341.39 342.58 344.29 346.78 349.44 350.80 354.40 363.59 367.08 362.62 358.29 356.88 355.41 354.72 353.44 353.10 352.85 350.05 344.92 336.97 333.00 328.78 325.88 324.04 322.51 321.63 321.88 323.58 329.77 335.85 338.68 341.97 357.80 361.93 360.82 358.03 352.84 347.84 342.68 336.98 335.25 329.99 327.11 326.62 327.23 327.35 326.02 326.02 326.46 326.62 326.93 327.15 328.94 330.76 327.59 327.40 327.70 327.25 325.22 323.09 320.12 317.89 314.21 312.45 305.91 300.68 290.57 283.66 281.46 280.28 279.38 279.07 279.06 278.07 276.90 276.30 275.85 280.24 280.37 278.29 277.20 276.94 280.27 283.79 281.98 282.74 283.81 287.56 283.45 280.92 280.73 280.93 281.20 282.93 283.90 276.15 272.78 272.42 272.83 274.83 279.66 282.21 285.21 282.75 276.50 268.52 266.25 264.86 265.58 266.55 267.52 268.22 267.76 268.80 269.67 270.97 270.67 268.30 267.10 265.70 262.26 260.03 257.55 254.95 254.89 262.76 271.94 280.09 281.73 282.45 284.18 285.95 287.93 289.12 286.65 285.38 284.88 285.07 285.71 286.43 288.75 292.78 295.64 297.85 297.43 294.60 292.42 294.16 293.14 292.52 292.28 291.53 290.19 288.40 285.86 283.25 280.56 276.85 271.90 267.93 264.47 262.55 262.44 264.66 268.60 274.14 280.30 285.79 291.25 296.27 298.06 299.77 302.13 304.42 304.88 304.21 302.16 296.60 293.12 288.58 281.24 278.76 278.71 279.64 280.51 281.25 281.82 282.21 282.49 282.80 285.20 289.85 293.29 296.50 298.97 299.92 297.28 294.72 293.62 292.78 291.90 291.65 291.48 290.66 290.82 289.28 287.27 286.20 285.75 285.85 286.57 288.67 293.71 302.19 306.13 306.22 303.30 299.10 294.46 289.23 281.10 271.24 262.45 257.42 256.45 257.38 260.58 260.18 259.33 256.06 254.29 251.86 248.11 245.42 245.12 245.82 246.17 245.73 244.25 239.45 235.34 230.36 225.08 213.98 209.51 205.30 201.33 203.17 204.29 200.43 197.07 194.16 191.25 188.18 185.40 182.44 179.47 177.37 175.48 172.89 177.19 180.04 184.75 186.65 180.74 176.39 173.69 173.04 175.00 175.61 171.10 168.33 169.85 171.61 171.32 172.00 171.92 171.42 169.77 161.66 143.67 127.31 110.26 103.93 102.69 110.37 126.40 130.85 141.88 149.92 149.70 150.72 150.47 148.33 137.33 133.17 134.94 142.23 153.77 158.37 153.00 148.95 147.75 145.99 144.80 144.25 144.23 143.34 141.30 135.33 132.93 129.85 122.23 123.35 126.35 137.49 133.40
